-0.461932,0.310916,1.123596 73,71,68
-0.461192,0.307461,1.111111 71,70,66
0.634887,0.413276,1.515152 62,72,75
0.638573,0.419634,1.538462 65,74,74
0.632492,0.419634,1.538462 68,73,76
0.636198,0.426191,1.562500 67,70,74
0.630021,0.426191,1.562500 69,72,76
0.633747,0.432956,1.587302 69,73,76
0.627472,0.432956,1.587302 67,74,76
0.621197,0.432956,1.587302 65,75,73
0.624841,0.439939,1.612903 66,76,77
0.618465,0.439939,1.612903 67,74,79
0.622123,0.447151,1.639344 69,75,69
0.615642,0.447151,1.639344 67,77,69
0.609162,0.447151,1.639344 67,76,71
0.612726,0.454603,1.666667 66,77,73
0.606138,0.454603,1.666667 66,77,75
0.609711,0.462309,1.694915 70,78,78
0.603011,0.462309,1.694915 73,77,80
0.596311,0.462309,1.694915 75,80,83
0.599777,0.470279,1.724138 73,81,81
0.592961,0.470279,1.724138 67,79,79
0.596429,0.478530,1.754386 70,80,81
0.589493,0.478530,1.754386 72,79,79
0.592961,0.487075,1.785714 77,80,80
0.585902,0.487075,1.785714 70,81,81
0.578843,0.487075,1.785714 67,80,78
0.582180,0.495931,1.818182 76,81,82
0.574992,0.495931,1.818182 75,78,82
0.578320,0.505115,1.851852 77,79,84
0.570999,0.505115,1.851852 78,80,82
0.563679,0.505115,1.851852 81,82,86
0.566856,0.514645,1.886792 79,80,85
0.559397,0.514645,1.886792 79,82,80
0.562553,0.524542,1.923077 73,83,85
0.554951,0.524542,1.923077 76,80,81
0.558081,0.534828,1.960784 73,81,84
0.550330,0.534828,1.960784 74,83,83
0.542579,0.534828,1.960784 76,86,79
0.545524,0.545524,2.000000 74,83,78
0.537618,0.545524,2.000000 82,85,86
0.540522,0.556657,2.040816 78,82,83
0.532455,0.556657,2.040816 80,86,84
0.535312,0.568254,2.083333 81,86,83
0.527076,0.568254,2.083333 83,90,87
0.518841,0.568254,2.083333 82,87,88
0.521469,0.580345,2.127660 82,86,91
0.513058,0.580345,2.127660 88,88,92
0.515618,0.592961,2.173913 85,89,92
0.507025,0.592961,2.173913 80,89,88
0.509507,0.606138,2.222222 85,91,91
0.500723,0.606138,2.222222 85,91,91
0.491938,0.606138,2.222222 86,90,93
0.494134,0.619914,2.272727 88,89,93
0.485150,0.619914,2.272727 88,89,91
0.487239,0.634330,2.325581 84,87,91
0.478046,0.634330,2.325581 85,90,91
0.480016,0.649433,2.380952 86,91,90
0.470604,0.649433,2.380952 85,89,90
0.461192,0.649433,2.380952 83,88,92
0.462799,0.665273,2.439024 84,88,88
0.453157,0.665273,2.439024 88,89,92
0.454603,0.681905,2.500000 87,88,91
0.444721,0.681905,2.500000 87,89,91
0.445988,0.699390,2.564103 88,89,93
0.435852,0.699390,2.564103 83,87,90
0.425716,0.699390,2.564103 88,90,92
0.426516,0.717795,2.631579 88,89,89
0.416113,0.717795,2.631579 87,89,92
0.416675,0.737195,2.702703 84,86,87
0.405991,0.737195,2.702703 88,90,88
0.395307,0.737195,2.702703 89,88,91
0.395307,0.757672,2.777778 85,88,86
0.384327,0.757672,2.777778 85,87,87
0.384013,0.779320,2.857143 86,87,89
0.372718,0.779320,2.857143 84,90,89
0.361424,0.779320,2.857143 83,88,86
0.360427,0.802241,2.941176 85,88,89
0.348801,0.802241,2.941176 88,86,91
0.347391,0.826552,3.030303 87,85,90
0.335412,0.826552,3.030303 84,84,89
0.323433,0.826552,3.030303 84,83,91
0.321187,0.852381,3.125000 84,84,89
0.308834,0.852381,3.125000 83,85,85
0.296480,0.852381,3.125000 84,84,84
0.293292,0.879877,3.225806 81,81,86
0.280541,0.879877,3.225806 82,83,83
0.276715,0.909207,3.333333 83,85,85
0.263538,0.909207,3.333333 78,82,85
0.250361,0.909207,3.333333 82,83,87
0.245363,0.940559,3.448275 80,80,85
0.231732,0.940559,3.448275 81,82,86
0.225890,0.974150,3.571428 81,82,86
0.211772,0.974150,3.571428 81,82,85
0.197654,0.974150,3.571428 83,78,87
0.190333,1.010230,3.703703 79,81,86
0.175692,1.010230,3.703703 80,81,86
0.161051,1.010230,3.703703 80,81,86
0.152041,1.049085,3.846154 81,80,88
0.136837,1.049085,3.846154 82,80,93
0.121633,1.049085,3.846154 82,83,88
0.110686,1.091048,4.000000 81,81,89
0.094874,1.091048,4.000000 82,81,89
0.082356,1.136508,4.166666 83,83,82
0.065885,1.136508,4.166666 81,82,85
0.049413,1.136508,4.166666 81,80,88
0.034375,1.185922,4.347826 84,81,88
0.017187,1.185922,4.347826 82,82,89
-0.000000,1.185922,4.347826 77,80,85
-0.017969,1.239827,4.545454 78,81,86
-0.035937,1.239827,4.545454 76,78,84
-0.056472,1.298867,4.761904 77,76,83
-0.075297,1.298867,4.761904 78,75,84
-0.094121,1.298867,4.761904 77,74,85
-0.118592,1.363810,5.000000 74,72,83
-0.138358,1.363810,5.000000 74,70,73
-0.158123,1.363810,5.000000 76,71,78
-0.187251,1.435589,5.263157 70,68,69
-0.208056,1.435589,5.263157 66,64,67
-0.241577,1.515344,5.555555 61,59,71
-0.263538,1.515344,5.555555 56,57,62
-0.285500,1.515344,5.555555 54,54,56
-0.325547,1.604482,5.882352 54,48,53
-0.348801,1.604482,5.882352 51,47,49
-0.395307,1.704762,6.249999 50,44,46
-0.420014,1.704762,6.249999 46,37,40
-0.444721,1.704762,6.249999 44,38,41
-0.500723,1.818413,6.666666 35,35,33
-0.527076,1.818413,6.666666 36,33,30
-0.553430,1.818413,6.666666 29,17,23
-0.579784,1.818413,6.666666 17,4,17
-0.606138,1.818413,6.666666 3,8,7
-0.632492,1.818413,6.666666 11,8,5
-0.658845,1.818413,6.666666 30,7,9
-0.642374,1.704762,6.249999 33,9,12
-0.667081,1.704762,6.249999 34,4,14
-0.691788,1.704762,6.249999 36,6,15
-0.674348,1.604482,5.882352 35,7,11
-0.697601,1.604482,5.882352 30,4,16
-0.720854,1.604482,5.882352 31,9,15
-0.702768,1.515344,5.555555 37,9,19
-0.724730,1.515344,5.555555 40,8,15
-0.746691,1.515344,5.555555 39,9,12
-0.768653,1.515344,5.555555 31,9,12
-0.749003,1.435589,5.263157 37,6,21
-0.769809,1.435589,5.263157 38,8,20
-0.790614,1.435589,5.263157 43,6,23
-0.770849,1.363810,5.000000 44,4,20
-0.790615,1.363810,5.000000 41,7,22
-0.810380,1.363810,5.000000 45,6,17
-0.790615,1.298867,4.761904 41,6,16
-0.809439,1.298867,4.761904 43,7,19
-0.828263,1.298867,4.761904 43,7,21
-0.808583,1.239827,4.545454 43,7,21
-0.826552,1.239827,4.545454 44,8,20
-0.844520,1.239827,4.545454 43,7,17
-0.824989,1.185922,4.347826 46,6,17
-0.842176,1.185922,4.347826 41,7,17
-0.859364,1.185922,4.347826 40,7,19
-0.876551,1.185922,4.347826 42,4,17
-0.856499,1.136508,4.166666 40,9,19
-0.333541,0.426191,1.562500 71,72,64
-0.334491,0.419634,1.538462 81,78,70
-0.335412,0.413276,1.515152 81,79,67
-0.341402,0.413276,1.515152 79,81,70
-0.342206,0.407107,1.492537 77,79,69
-0.348106,0.407107,1.492537 78,79,72
-0.348801,0.401121,1.470588 80,81,76
-0.354614,0.401121,1.470588 85,81,78
-0.355204,0.395307,1.449275 84,81,75
-0.360933,0.395307,1.449275 83,83,73
-0.361424,0.389660,1.428571 79,78,73
-0.367071,0.389660,1.428571 85,82,77
-0.367469,0.384172,1.408451 83,80,81
-0.373036,0.384172,1.408451 84,80,77
-0.373346,0.378836,1.388889 78,80,77
-0.378836,0.378836,1.388889 79,79,77
-0.379062,0.373647,1.369863 80,78,79
-0.384477,0.373647,1.369863 81,79,80
-0.384623,0.368597,1.351351 83,77,77
-0.389965,0.368597,1.351351 84,81,76
-0.390037,0.363683,1.333333 78,79,71
-0.395307,0.363683,1.333333 79,80,75
-0.395307,0.358897,1.315789 82,81,79
-0.400509,0.358897,1.315789 80,79,77
-0.400441,0.354236,1.298701 79,76,73
-0.405575,0.354236,1.298701 78,77,73
-0.405443,0.349695,1.282051 77,77,75
-0.410511,0.349695,1.282051 76,77,70
-0.410319,0.345268,1.265823 77,78,72
-0.415323,0.345268,1.265823 78,79,73
-0.420327,0.345268,1.265823 78,79,71
-0.420014,0.340953,1.250000 77,78,70
-0.424955,0.340953,1.250000 77,78,70
-0.424589,0.336743,1.234568 76,75,70
-0.429470,0.336743,1.234568 79,76,71
-0.429053,0.332637,1.219512 83,78,75
-0.433874,0.332637,1.219512 76,78,71
-0.433409,0.328629,1.204819 73,76,69
-0.438172,0.328629,1.204819 75,77,72
-0.437662,0.324717,1.190476 71,76,70
-0.442368,0.324717,1.190476 74,74,71
-0.441814,0.320897,1.176471 76,72,71
-0.446465,0.320897,1.176471 77,73,72
-0.445870,0.317165,1.162791 74,73,68
-0.450466,0.317165,1.162791 73,75,65
-0.449832,0.313520,1.149425 74,70,68
-0.454376,0.313520,1.149425 72,74,73
-0.453705,0.309957,1.136364 72,70,71
-0.458197,0.309957,1.136364 71,71,67
-0.457490,0.306474,1.123596 70,73,64
-0.461932,0.306474,1.123596 69,71,65
-0.461192,0.303069,1.111111 69,71,65
0.634887,0.407286,1.515152 62,73,79
0.638573,0.413552,1.538462 62,74,76
0.632492,0.413552,1.538462 63,73,74
0.636198,0.420014,1.562500 64,73,76
0.630021,0.420014,1.562500 64,73,80
0.633747,0.426681,1.587302 67,75,77
0.627472,0.426681,1.587302 64,74,72
0.631216,0.433563,1.612903 66,76,74
0.624841,0.433563,1.612903 66,76,78
0.618465,0.433563,1.612903 64,71,78
0.622123,0.440670,1.639344 67,78,71
0.615642,0.440670,1.639344 69,78,74
0.619315,0.448015,1.666667 72,78,77
0.612726,0.448015,1.666667 68,76,81
0.606138,0.448015,1.666667 70,78,82
0.609711,0.455608,1.694915 70,77,79
0.603011,0.455608,1.694915 68,73,76
0.606592,0.463464,1.724138 71,75,76
0.599777,0.463464,1.724138 72,78,76
0.592961,0.463464,1.724138 69,79,81
0.596429,0.471595,1.754386 71,80,82
0.589493,0.471595,1.754386 75,80,82
0.592961,0.480016,1.785714 74,78,80
0.585902,0.480016,1.785714 74,82,83
0.578843,0.480016,1.785714 71,81,80
0.582180,0.488744,1.818182 76,82,82
0.574992,0.488744,1.818182 75,79,82
0.578320,0.497794,1.851852 77,82,87
0.570999,0.497794,1.851852 74,83,83
0.574314,0.507187,1.886792 79,82,82
0.566856,0.507187,1.886792 81,81,86
0.559397,0.507187,1.886792 81,81,86
0.562553,0.516940,1.923077 82,83,83
0.554951,0.516940,1.923077 80,82,78
0.558081,0.527076,1.960784 79,84,78
0.550330,0.527076,1.960784 78,86,79
0.553430,0.537618,2.000000 76,83,82
0.545524,0.537618,2.000000 78,84,81
0.537618,0.537618,2.000000 81,86,83
0.540522,0.548590,2.040816 79,83,84
0.532455,0.548590,2.040816 80,85,84
0.535312,0.560019,2.083333 81,86,81
0.527076,0.560019,2.083333 79,92,86
0.518841,0.560019,2.083333 77,87,88
0.521469,0.571934,2.127660 84,84,93
0.513058,0.571934,2.127660 87,89,93
0.515618,0.584367,2.173913 82,87,90
0.507025,0.584367,2.173913 83,91,92
0.509507,0.597353,2.222222 83,91,90
0.500723,0.597353,2.222222 84,90,88
0.491938,0.597353,2.222222 84,88,91
0.494134,0.610929,2.272727 85,88,92
0.485150,0.610929,2.272727 83,92,91
0.487239,0.625137,2.325581 87,90,92
0.478046,0.625137,2.325581 88,90,90
0.480016,0.640021,2.380952 85,90,86
0.470604,0.640021,2.380952 86,90,89
0.461192,0.640021,2.380952 88,91,96
0.462799,0.655632,2.439024 85,89,87
0.453157,0.655632,2.439024 88,90,86
0.454603,0.672022,2.500000 90,89,87
0.444721,0.672022,2.500000 88,90,87
0.445988,0.689254,2.564103 88,87,89
0.435852,0.689254,2.564103 85,90,90
0.425716,0.689254,2.564103 84,90,88
0.426516,0.707392,2.631579 91,89,86
0.416113,0.707392,2.631579 90,88,88
0.416675,0.726511,2.702703 88,87,87
0.405991,0.726511,2.702703 91,89,91
0.395307,0.726511,2.702703 91,89,95
0.395307,0.746692,2.777778 85,90,91
0.384327,0.746692,2.777778 86,88,89
0.384013,0.768026,2.857143 89,89,92
0.372718,0.768026,2.857143 84,89,93
0.361424,0.768026,2.857143 85,89,89
0.360427,0.790615,2.941176 88,88,86
0.348801,0.790615,2.941176 86,87,87
0.347391,0.814573,3.030303 83,88,90
0.335412,0.814573,3.030303 83,87,91
0.323433,0.814573,3.030303 82,85,90
0.321187,0.840028,3.125000 81,85,89
0.308834,0.840028,3.125000 77,85,83
0.306044,0.867126,3.225806 84,86,84
0.293292,0.867126,3.225806 83,84,86
0.280541,0.867126,3.225806 81,86,86
0.276715,0.896030,3.333333 81,85,85
0.263538,0.896030,3.333333 78,82,86
0.250361,0.896030,3.333333 85,84,89
0.245363,0.926927,3.448275 84,83,88
0.231732,0.926927,3.448275 81,80,85
0.225890,0.960032,3.571428 82,83,86
0.211772,0.960032,3.571428 81,82,84
0.197654,0.960032,3.571428 83,81,87
0.190333,0.995589,3.703703 79,80,84
0.175692,0.995589,3.703703 83,83,88
0.161051,0.995589,3.703703 78,83,87
0.152041,1.033881,3.846154 80,82,87
0.136837,1.033881,3.846154 83,81,92
0.126498,1.075236,4.000000 83,84,88
0.110686,1.075236,4.000000 81,81,89
0.094874,1.075236,4.000000 84,83,89
0.082356,1.120037,4.166666 84,83,90
0.065885,1.120037,4.166666 82,82,92
0.049413,1.120037,4.166666 81,81,93
0.034375,1.168735,4.347826 83,81,94
0.017187,1.168735,4.347826 82,83,90
-0.000000,1.221859,4.545454 80,79,87
-0.017969,1.221859,4.545454 79,78,86
-0.035937,1.221859,4.545454 78,78,86
-0.056472,1.280043,4.761904 79,78,87
-0.075297,1.280043,4.761904 75,74,82
-0.094121,1.280043,4.761904 74,74,82
-0.118592,1.344045,5.000000 74,72,85
-0.138358,1.344045,5.000000 75,70,76
-0.166445,1.414784,5.263157 71,70,76
-0.187251,1.414784,5.263157 68,68,66
-0.208056,1.414784,5.263157 68,63,66
-0.241577,1.493383,5.555555 65,61,65
-0.263538,1.493383,5.555555 62,58,59
-0.285500,1.493383,5.555555 56,54,55
-0.325547,1.581229,5.882352 51,49,52
-0.348801,1.581229,5.882352 48,46,51
-0.395307,1.680056,6.249999 52,45,47
-0.420014,1.680056,6.249999 48,38,38
-0.444721,1.680056,6.249999 44,38,38
-0.500723,1.792060,6.666666 39,39,34
-0.527076,1.792060,6.666666 37,31,26
-0.553430,1.792060,6.666666 36,22,21
-0.579784,1.792060,6.666666 21,8,11
-0.606138,1.792060,6.666666 1,10,3
-0.632492,1.792060,6.666666 10,7,3
-0.658845,1.792060,6.666666 28,5,8
-0.642374,1.680056,6.249999 33,7,10
-0.667081,1.680056,6.249999 34,4,11
-0.691788,1.680056,6.249999 40,8,20
-0.674348,1.581229,5.882352 38,6,14
-0.697601,1.581229,5.882352 35,7,20
-0.720854,1.581229,5.882352 31,9,16
-0.702768,1.493383,5.555555 40,7,20
-0.724730,1.493383,5.555555 43,7,23
-0.746691,1.493383,5.555555 37,8,18
-0.768653,1.493383,5.555555 36,9,11
-0.749003,1.414784,5.263157 36,6,21
-0.769809,1.414784,5.263157 40,6,21
-0.790614,1.414784,5.263157 41,7,21
-0.770849,1.344045,5.000000 40,6,23
-0.790615,1.344045,5.000000 40,9,20
-0.810380,1.344045,5.000000 44,5,20
-0.790615,1.280043,4.761904 43,6,21
-0.809439,1.280043,4.761904 43,7,19
-0.828263,1.280043,4.761904 43,7,21
-0.808583,1.221859,4.545454 43,7,20
-0.826552,1.221859,4.545454 42,7,15
-0.844520,1.221859,4.545454 40,6,19
-0.824989,1.168735,4.347826 46,6,19
-0.842176,1.168735,4.347826 40,7,18
-0.859364,1.168735,4.347826 41,6,22
-0.876551,1.168735,4.347826 45,5,20
-0.856499,1.120037,4.166666 41,8,18
-0.476166,0.610929,2.272727 41,10,11
-0.333541,0.420014,1.562500 73,74,66
-0.334491,0.413552,1.538462 81,77,72
-0.335412,0.407286,1.515152 81,77,72
-0.341402,0.407286,1.515152 77,80,73
-0.342206,0.401207,1.492537 73,78,71
-0.348106,0.401207,1.492537 79,82,74
-0.348801,0.395307,1.470588 81,81,74
-0.354614,0.395307,1.470588 82,78,77
-0.355204,0.389578,1.449275 80,79,75
-0.360933,0.389578,1.449275 82,82,73
-0.361424,0.384013,1.428571 82,81,76
-0.367071,0.384013,1.428571 83,80,77
-0.367469,0.378604,1.408451 83,79,80
-0.373036,0.378604,1.408451 83,81,78
-0.373346,0.373346,1.388889 81,82,76
-0.378836,0.373346,1.388889 83,79,76
-0.379062,0.368231,1.369863 83,79,77
-0.384477,0.368231,1.369863 79,79,77
-0.384623,0.363255,1.351351 84,80,74
-0.389965,0.363255,1.351351 82,82,77
-0.390037,0.358412,1.333333 76,79,76
-0.395307,0.358412,1.333333 81,81,77
-0.395307,0.353696,1.315789 83,80,74
-0.400509,0.353696,1.315789 80,81,73
-0.400441,0.349103,1.298701 77,78,72
-0.405575,0.349103,1.298701 80,81,76
-0.405443,0.344627,1.282051 79,78,76
-0.410511,0.344627,1.282051 79,76,77
-0.415579,0.344627,1.282051 77,77,75
-0.415323,0.340265,1.265823 76,78,73
-0.420327,0.340265,1.265823 76,79,70
-0.420014,0.336011,1.250000 77,78,70
-0.424955,0.336011,1.250000 74,75,69
-0.424589,0.331863,1.234568 77,76,71
-0.429470,0.331863,1.234568 78,75,70
-0.429053,0.327816,1.219512 79,75,72
-0.433874,0.327816,1.219512 77,77,71
-0.433409,0.323866,1.204819 77,77,72
-0.438172,0.323866,1.204819 78,77,72
-0.437662,0.320011,1.190476 74,73,68
-0.442368,0.320011,1.190476 74,73,69
-0.441814,0.316246,1.176471 76,73,70
-0.446465,0.316246,1.176471 78,74,71
-0.445870,0.312569,1.162791 72,71,67
-0.450466,0.312569,1.162791 72,75,69
-0.449832,0.308976,1.149425 72,71,68
-0.454376,0.308976,1.149425 68,72,69
-0.453705,0.305465,1.136364 74,73,69
-0.458197,0.305465,1.136364 72,71,64
-0.457490,0.302033,1.123596 69,71,61
-0.461932,0.302033,1.123596 67,72,65
-0.461192,0.298677,1.111111 70,72,63
0.634887,0.401297,1.515152 65,73,84
0.638573,0.407471,1.538462 63,72,77
0.632492,0.407471,1.538462 64,71,73
0.636198,0.413837,1.562500 65,73,75
0.630021,0.413837,1.562500 59,73,75
0.633747,0.420406,1.587302 63,74,76
0.627472,0.420406,1.587302 65,76,77
0.631216,0.427187,1.612903 62,73,75
0.624841,0.427187,1.612903 67,77,79
0.628603,0.434190,1.639344 67,74,80
0.622123,0.434190,1.639344 66,75,80
0.615642,0.434190,1.639344 70,75,81
0.619315,0.441426,1.666667 69,74,77
0.612726,0.441426,1.666667 69,78,76
0.606138,0.441426,1.666667 69,79,76
0.609711,0.448908,1.694915 70,78,80
0.603011,0.448908,1.694915 71,77,76
0.606592,0.456648,1.724138 62,67,65
0.599777,0.456648,1.724138 65,67,64
0.592961,0.456648,1.724138 73,79,82
0.596429,0.464659,1.754386 73,78,82
0.589493,0.464659,1.754386 73,76,81
0.592961,0.472957,1.785714 74,77,82
0.585902,0.472957,1.785714 73,79,82
0.589367,0.481556,1.818182 71,81,80
0.582180,0.481556,1.818182 76,82,82
0.574992,0.481556,1.818182 76,81,85
0.578320,0.490474,1.851852 72,79,87
0.570999,0.490474,1.851852 73,81,83
0.574314,0.499728,1.886792 77,83,81
0.566856,0.499728,1.886792 79,83,86
0.559397,0.499728,1.886792 78,82,84
0.562553,0.509338,1.923077 76,83,83
0.554951,0.509338,1.923077 78,84,82
0.558081,0.519325,1.960784 78,83,79
0.550330,0.519325,1.960784 79,83,81
0.553430,0.529712,2.000000 79,82,85
0.545524,0.529712,2.000000 81,83,86
0.537618,0.529712,2.000000 79,82,78
0.540522,0.540522,2.040816 81,82,84
0.532455,0.540522,2.040816 82,84,83
0.535312,0.551783,2.083333 82,85,87
0.527076,0.551783,2.083333 78,87,86
0.518841,0.551783,2.083333 78,88,85
0.521469,0.563523,2.127660 83,88,86
0.513058,0.563523,2.127660 79,88,87
0.515618,0.575774,2.173913 85,90,90
0.507025,0.575774,2.173913 86,89,90
0.509507,0.588569,2.222222 88,89,91
0.500723,0.588569,2.222222 84,88,87
0.491938,0.588569,2.222222 84,88,87
0.494134,0.601945,2.272727 86,91,91
0.485150,0.601945,2.272727 85,90,91
0.487239,0.615944,2.325581 89,86,89
0.478046,0.615944,2.325581 89,88,90
0.480016,0.630609,2.380952 86,90,91
0.470604,0.630609,2.380952 85,89,90
0.461192,0.630609,2.380952 85,88,88
0.462799,0.645990,2.439024 84,91,89
0.453157,0.645990,2.439024 84,91,87
0.454603,0.662140,2.500000 87,91,88
0.444721,0.662140,2.500000 85,89,85
0.445988,0.679118,2.564103 84,88,85
0.435852,0.679118,2.564103 83,89,85
0.425716,0.679118,2.564103 85,92,84
0.426516,0.696989,2.631579 87,89,84
0.416113,0.696989,2.631579 85,90,87
0.416675,0.715827,2.702703 89,90,86
0.405991,0.715827,2.702703 88,87,88
0.395307,0.715827,2.702703 86,86,91
0.395307,0.735711,2.777778 88,91,94
0.384327,0.735711,2.777778 90,91,94
0.384013,0.756731,2.857143 88,87,93
0.372718,0.756731,2.857143 86,87,92
0.361424,0.756731,2.857143 87,87,91
0.360427,0.778988,2.941176 88,88,85
0.348801,0.778988,2.941176 81,88,84
0.347391,0.802594,3.030303 78,88,84
0.335412,0.802594,3.030303 87,87,89
0.323433,0.802594,3.030303 88,87,91
0.321187,0.827675,3.125000 87,87,89
0.308834,0.827675,3.125000 84,86,87
0.306044,0.854374,3.225806 88,85,86
0.293292,0.854374,3.225806 89,86,85
0.280541,0.854374,3.225806 84,82,86
0.276715,0.882853,3.333333 86,84,90
0.263538,0.882853,3.333333 84,83,88
0.258994,0.913296,3.448275 88,83,89
0.245363,0.913296,3.448275 85,83,88
0.231732,0.913296,3.448275 85,84,89
0.225890,0.945914,3.571428 83,83,88
0.211772,0.945914,3.571428 80,84,84
0.197654,0.945914,3.571428 80,81,83
0.190333,0.980948,3.703703 83,83,83
0.175692,0.980948,3.703703 83,81,84
0.161051,0.980948,3.703703 77,81,84
0.152041,1.018676,3.846154 82,81,86
0.136837,1.018676,3.846154 83,81,88
0.126498,1.059423,4.000000 82,83,85
0.110686,1.059423,4.000000 81,81,88
0.094874,1.059423,4.000000 83,82,90
0.082356,1.103566,4.166666 83,82,90
0.065885,1.103566,4.166666 84,84,90
0.049413,1.103566,4.166666 81,84,89
0.034375,1.151547,4.347826 82,83,89
0.017187,1.151547,4.347826 80,80,85
-0.000000,1.203890,4.545454 82,79,88
-0.017969,1.203890,4.545454 84,78,92
-0.035937,1.203890,4.545454 80,78,90
-0.056472,1.261218,4.761904 78,74,89
-0.075297,1.261218,4.761904 75,75,85
-0.094121,1.261218,4.761904 75,75,83
-0.118592,1.324279,5.000000 73,71,84
-0.138358,1.324279,5.000000 71,69,76
-0.166445,1.393978,5.263157 67,70,76
-0.187251,1.393978,5.263157 66,69,67
-0.208056,1.393978,5.263157 67,62,65
-0.241577,1.471421,5.555555 70,57,69
-0.263538,1.471421,5.555555 66,55,66
-0.302294,1.557976,5.882352 58,53,62
-0.325547,1.557976,5.882352 52,50,63
-0.348801,1.557976,5.882352 50,49,52
-0.395307,1.655349,6.249999 52,42,43
-0.420014,1.655349,6.249999 51,40,39
-0.444721,1.655349,6.249999 44,35,38
-0.500723,1.765706,6.666666 35,33,41
-0.527076,1.765706,6.666666 42,34,38
-0.553430,1.765706,6.666666 37,19,23
-0.579784,1.765706,6.666666 25,7,14
-0.606138,1.765706,6.666666 3,9,1
-0.632492,1.765706,6.666666 11,5,3
-0.658845,1.765706,6.666666 29,5,14
-0.642374,1.655349,6.249999 31,4,16
-0.667081,1.655349,6.249999 34,5,13
-0.691788,1.655349,6.249999 41,5,21
-0.674348,1.557976,5.882352 40,5,17
-0.697601,1.557976,5.882352 38,8,22
-0.720854,1.557976,5.882352 35,8,12
-0.744108,1.557976,5.882352 40,8,16
-0.724730,1.471421,5.555555 43,7,21
-0.746691,1.471421,5.555555 41,10,23
-0.768653,1.471421,5.555555 46,5,13
-0.749003,1.393978,5.263157 44,7,23
-0.769809,1.393978,5.263157 43,5,21
-0.790614,1.393978,5.263157 45,7,23
-0.770849,1.324279,5.000000 40,5,21
-0.790615,1.324279,5.000000 41,9,20
-0.810380,1.324279,5.000000 44,3,20
-0.790615,1.261218,4.761904 46,3,22
-0.809439,1.261218,4.761904 47,6,24
-0.828263,1.261218,4.761904 47,6,24
-0.808583,1.203890,4.545454 44,5,16
-0.826552,1.203890,4.545454 43,6,21
-0.844520,1.203890,4.545454 42,6,17
-0.824989,1.151547,4.347826 42,6,16
-0.842176,1.151547,4.347826 44,6,19
-0.859364,1.151547,4.347826 43,5,18
-0.876551,1.151547,4.347826 39,7,20
-0.856499,1.103566,4.166666 43,10,22
-0.465584,0.588569,2.222222 45,10,13
-0.333541,0.413837,1.562500 69,77,64
-0.334491,0.407471,1.538462 78,77,72
-0.335412,0.401297,1.515152 77,78,72
-0.341402,0.401297,1.515152 79,80,74
-0.342206,0.395307,1.492537 79,77,70
-0.348106,0.395307,1.492537 84,80,70
-0.348801,0.389494,1.470588 87,81,72
-0.354614,0.389494,1.470588 80,80,76
-0.355204,0.383849,1.449275 77,81,75
-0.360933,0.383849,1.449275 80,80,74
-0.361424,0.378366,1.428571 83,82,77
-0.367071,0.378366,1.428571 84,80,78
-0.367469,0.373036,1.408451 81,78,76
-0.373036,0.373036,1.408451 82,81,77
-0.373346,0.367855,1.388889 80,79,75
-0.378836,0.367855,1.388889 84,79,76
-0.379062,0.362816,1.369863 84,80,77
-0.384477,0.362816,1.369863 78,77,75
-0.384623,0.357913,1.351351 84,76,74
-0.389965,0.357913,1.351351 81,78,77
-0.390037,0.353141,1.333333 79,79,77
-0.395307,0.353141,1.333333 82,78,75
-0.395307,0.348495,1.315789 84,79,74
-0.400509,0.348495,1.315789 84,81,75
-0.400441,0.343969,1.298701 82,81,76
-0.405575,0.343969,1.298701 79,80,74
-0.410709,0.343969,1.298701 78,80,73
-0.410511,0.339559,1.282051 81,77,76
-0.415579,0.339559,1.282051 79,76,75
-0.415323,0.335261,1.265823 76,77,73
-0.420327,0.335261,1.265823 72,77,70
-0.420014,0.331070,1.250000 76,77,71
-0.424955,0.331070,1.250000 77,78,73
-0.424589,0.326983,1.234568 77,76,72
-0.429470,0.326983,1.234568 77,76,71
-0.429053,0.322995,1.219512 77,76,71
-0.433874,0.322995,1.219512 78,77,72
-0.433409,0.319103,1.204819 76,75,71
-0.438172,0.319103,1.204819 78,75,71
-0.437662,0.315305,1.190476 80,77,72
-0.442368,0.315305,1.190476 76,75,70
-0.441814,0.311595,1.176471 75,74,69
-0.446465,0.311595,1.176471 73,72,67
-0.445870,0.307972,1.162791 74,75,70
-0.450466,0.307972,1.162791 72,73,73
-0.449832,0.304432,1.149425 72,72,70
-0.454376,0.304432,1.149425 69,71,66
-0.453705,0.300973,1.136364 72,72,65
-0.458197,0.300973,1.136364 74,74,64
-0.457490,0.297591,1.123596 71,75,64
-0.461932,0.297591,1.123596 68,74,64
-0.461192,0.294284,1.111111 71,72,64
0.634887,0.395307,1.515152 63,73,74
0.628898,0.395307,1.515152 67,73,72
0.632492,0.401389,1.538462 70,74,76
0.626410,0.401389,1.538462 72,76,79
0.630021,0.407661,1.562500 67,75,77
0.623844,0.407661,1.562500 68,79,80
0.627472,0.414131,1.587302 65,75,78
0.621197,0.414131,1.587302 69,79,84
0.624841,0.420811,1.612903 67,76,80
0.618465,0.420811,1.612903 71,77,81
0.622123,0.427710,1.639344 68,76,80
0.615642,0.427710,1.639344 73,77,84
0.619315,0.434838,1.666667 71,76,81
0.612726,0.434838,1.666667 69,80,80
0.616411,0.442208,1.694915 67,79,74
0.609711,0.442208,1.694915 70,79,77
0.603011,0.442208,1.694915 73,79,77
0.606592,0.449832,1.724138 66,69,67
0.599777,0.449832,1.724138 59,59,59
0.603364,0.457724,1.754386 73,78,80
0.596429,0.457724,1.754386 74,79,81
0.589493,0.457724,1.754386 74,79,82
0.592961,0.465898,1.785714 75,80,84
0.585902,0.465898,1.785714 75,82,85
0.589367,0.474369,1.818182 72,82,84
0.582180,0.474369,1.818182 72,80,82
0.574992,0.474369,1.818182 74,82,85
0.578320,0.483153,1.851852 74,82,88
0.570999,0.483153,1.851852 75,79,81
0.574314,0.492269,1.886792 77,83,81
0.566856,0.492269,1.886792 77,82,85
0.570155,0.501736,1.923077 78,83,85
0.562553,0.501736,1.923077 74,82,84
0.554951,0.501736,1.923077 77,85,87
0.558081,0.511574,1.960784 79,84,83
0.550330,0.511574,1.960784 80,81,83
0.553430,0.521806,2.000000 81,80,87
0.545524,0.521806,2.000000 83,83,87
0.537618,0.521806,2.000000 80,82,81
0.540522,0.532455,2.040816 81,82,84
0.532455,0.532455,2.040816 80,85,80
0.535312,0.543548,2.083333 81,82,86
0.527076,0.543548,2.083333 78,84,84
0.529880,0.555112,2.127660 80,85,84
0.521469,0.555112,2.127660 85,86,85
0.513058,0.555112,2.127660 83,85,86
0.515618,0.567180,2.173913 83,87,85
0.507025,0.567180,2.173913 83,87,84
0.509507,0.579784,2.222222 87,87,87
0.500723,0.579784,2.222222 86,90,87
0.503118,0.592961,2.272727 86,90,91
0.494134,0.592961,2.272727 81,86,89
0.485150,0.592961,2.272727 80,88,91
0.487239,0.606751,2.325581 88,88,90
0.478046,0.606751,2.325581 87,88,90
0.480016,0.621197,2.380952 84,89,90
0.470604,0.621197,2.380952 84,90,90
0.472440,0.636348,2.439024 84,88,88
0.462799,0.636348,2.439024 85,89,89
0.453157,0.636348,2.439024 84,88,89
0.454603,0.652257,2.500000 87,87,92
0.444721,0.652257,2.500000 88,88,89
0.445988,0.668982,2.564103 88,89,90
0.435852,0.668982,2.564103 87,89,90
0.425716,0.668982,2.564103 90,90,87
0.426516,0.686586,2.631579 90,91,87
0.416113,0.686586,2.631579 84,89,87
0.416675,0.705143,2.702703 89,91,86
0.405991,0.705143,2.702703 90,88,90
0.395307,0.705143,2.702703 87,90,93
0.395307,0.724730,2.777778 87,88,88
0.384327,0.724730,2.777778 87,88,92
0.384013,0.745437,2.857143 86,87,89
0.372718,0.745437,2.857143 86,89,90
0.372054,0.767361,2.941176 86,89,92
0.360427,0.767361,2.941176 88,89,91
0.348801,0.767361,2.941176 85,89,88
0.347391,0.790615,3.030303 83,88,89
0.335412,0.790615,3.030303 87,87,92
0.323433,0.790615,3.030303 86,88,89
0.321187,0.815321,3.125000 82,86,82
0.308834,0.815321,3.125000 87,87,85
0.306044,0.841622,3.225806 81,85,85
0.293292,0.841622,3.225806 84,85,86
0.280541,0.841622,3.225806 86,85,88
0.276715,0.869676,3.333333 86,84,91
0.263538,0.869676,3.333333 83,84,86
0.258994,0.899665,3.448275 84,84,89
0.245363,0.899665,3.448275 83,83,86
0.231732,0.899665,3.448275 84,83,87
0.225890,0.931796,3.571428 84,84,90
0.211772,0.931796,3.571428 79,82,88
0.197654,0.931796,3.571428 81,81,87
0.190333,0.966307,3.703703 80,83,87
0.175692,0.966307,3.703703 78,81,88
0.167245,1.003472,3.846154 82,81,90
0.152041,1.003472,3.846154 84,83,88
0.136837,1.003472,3.846154 81,82,84
0.126498,1.043611,4.000000 85,85,83
0.110686,1.043611,4.000000 83,80,85
0.094874,1.043611,4.000000 84,81,90
0.082356,1.087095,4.166666 81,80,86
0.065885,1.087095,4.166666 80,81,91
0.051562,1.134360,4.347826 80,84,88
0.034375,1.134360,4.347826 77,83,86
0.017187,1.134360,4.347826 82,81,89
-0.000000,1.185922,4.545454 82,79,88
-0.017969,1.185922,4.545454 81,80,86
-0.035937,1.185922,4.545454 80,80,84
-0.056472,1.242394,4.761904 80,77,83
-0.075297,1.242394,4.761904 75,74,79
-0.094121,1.242394,4.761904 74,75,80
-0.118592,1.304514,5.000000 76,73,83
-0.138358,1.304514,5.000000 71,70,75
-0.166445,1.373173,5.263157 71,71,77
-0.187251,1.373173,5.263157 69,69,75
-0.208056,1.373173,5.263157 64,64,68
-0.241577,1.449460,5.555555 65,63,68
-0.263538,1.449460,5.555555 60,57,63
-0.302294,1.534722,5.882352 61,55,55
-0.325547,1.534722,5.882352 61,51,63
-0.348801,1.534722,5.882352 55,48,54
-0.395307,1.630642,6.249999 50,44,44
-0.420014,1.630642,6.249999 49,43,47
-0.444721,1.630642,6.249999 47,41,43
-0.500723,1.739352,6.666666 43,36,36
-0.527076,1.739352,6.666666 34,32,28
-0.553430,1.739352,6.666666 34,15,27
-0.579784,1.739352,6.666666 23,2,22
-0.606138,1.739352,6.666666 8,9,10
-0.632492,1.739352,6.666666 8,5,1
-0.658845,1.739352,6.666666 29,8,8
-0.642374,1.630642,6.249999 33,5,17
-0.667081,1.630642,6.249999 34,6,16
-0.691788,1.630642,6.249999 39,4,16
-0.674348,1.534722,5.882352 42,5,19
-0.697601,1.534722,5.882352 39,7,18
-0.720854,1.534722,5.882352 45,6,19
-0.744108,1.534722,5.882352 38,7,18
-0.724730,1.449460,5.555555 44,4,20
-0.746691,1.449460,5.555555 41,6,23
-0.768653,1.449460,5.555555 45,5,21
-0.749003,1.373173,5.263157 44,5,21
-0.769809,1.373173,5.263157 43,6,21
-0.790614,1.373173,5.263157 43,7,21
-0.770849,1.304514,5.000000 44,5,20
-0.790615,1.304514,5.000000 42,9,21
-0.810380,1.304514,5.000000 49,8,20
-0.790615,1.242394,4.761904 46,6,18
-0.809439,1.242394,4.761904 44,5,18
-0.828263,1.242394,4.761904 46,5,19
-0.808583,1.185922,4.545454 46,7,14
-0.826552,1.185922,4.545454 44,6,17
-0.844520,1.185922,4.545454 43,7,17
-0.824989,1.134360,4.347826 43,7,17
-0.842176,1.134360,4.347826 43,5,18
-0.859364,1.134360,4.347826 45,7,20
-0.876551,1.134360,4.347826 40,8,21
-0.856499,1.087095,4.166666 41,6,19
-0.455463,0.567180,2.173913 49,14,16
-0.333541,0.407661,1.562500 71,77,62
-0.334491,0.401389,1.538462 83,78,76
-0.335412,0.395307,1.515152 82,79,76
-0.341402,0.395307,1.515152 82,79,74
-0.342206,0.389407,1.492537 81,76,70
-0.348106,0.389407,1.492537 82,78,75
-0.348801,0.383681,1.470588 84,80,77
-0.354614,0.383681,1.470588 81,81,73
-0.355204,0.378120,1.449275 78,82,76
-0.360933,0.378120,1.449275 80,80,80
-0.361424,0.372718,1.428571 81,80,75
-0.367071,0.372718,1.428571 86,81,78
-0.367469,0.367469,1.408451 84,80,77
-0.373036,0.367469,1.408451 82,81,77
-0.373346,0.362365,1.388889 83,79,76
-0.378836,0.362365,1.388889 84,79,76
-0.379062,0.357401,1.369863 83,79,76
-0.384477,0.357401,1.369863 83,82,78
-0.384623,0.352571,1.351351 84,78,78
-0.389965,0.352571,1.351351 84,80,81
-0.390037,0.347870,1.333333 82,78,76
-0.395307,0.347870,1.333333 84,79,75
-0.395307,0.343293,1.315789 81,77,73
-0.400509,0.343293,1.315789 81,78,76
-0.405710,0.343293,1.315789 83,81,78
-0.405575,0.338835,1.298701 78,79,74
-0.410709,0.338835,1.298701 77,79,74
-0.410511,0.334491,1.282051 81,77,74
-0.415579,0.334491,1.282051 81,77,78
-0.415323,0.330257,1.265823 78,77,74
-0.420327,0.330257,1.265823 77,79,72
-0.420014,0.326129,1.250000 77,77,73
-0.424955,0.326129,1.250000 76,77,72
-0.424589,0.322102,1.234568 75,76,71
-0.429470,0.322102,1.234568 76,77,71
-0.429053,0.318174,1.219512 76,77,71
-0.433874,0.318174,1.219512 78,77,75
-0.433409,0.314341,1.204819 76,75,73
-0.438172,0.314341,1.204819 76,73,71
-0.437662,0.310599,1.190476 79,75,72
-0.442368,0.310599,1.190476 75,76,69
-0.441814,0.306944,1.176471 76,76,68
-0.446465,0.306944,1.176471 75,74,68
-0.445870,0.303375,1.162791 71,71,69
-0.450466,0.303375,1.162791 74,73,76
-0.449832,0.299888,1.149425 74,72,68
-0.454376,0.299888,1.149425 73,74,67
-0.458920,0.299888,1.149425 75,73,63
-0.458197,0.296480,1.136364 70,71,59
-0.462689,0.296480,1.136364 71,72,60
-0.461932,0.293149,1.123596 72,71,64
-0.461192,0.289892,1.111111 72,69,64
0.634887,0.389318,1.515152 62,69,74
0.628898,0.389318,1.515152 67,74,73
0.632492,0.395307,1.538462 67,72,75
0.626410,0.395307,1.538462 68,71,76
0.630021,0.401484,1.562500 68,73,76
0.623844,0.401484,1.562500 64,76,74
0.627472,0.407857,1.587302 64,74,73
0.621197,0.407857,1.587302 71,76,79
0.624841,0.414435,1.612903 69,78,78
0.618465,0.414435,1.612903 70,78,75
0.612089,0.414435,1.612903 68,78,80
0.615642,0.421229,1.639344 72,79,82
0.609162,0.421229,1.639344 74,79,82
0.612726,0.428250,1.666667 71,80,81
0.606138,0.428250,1.666667 71,81,82
0.609711,0.435508,1.694915 73,79,79
0.603011,0.435508,1.694915 74,78,79
0.606592,0.443017,1.724138 63,65,67
0.599777,0.443017,1.724138 61,60,66
0.603364,0.450789,1.754386 70,74,77
0.596429,0.450789,1.754386 74,80,81
0.589493,0.450789,1.754386 76,85,84
0.592961,0.458839,1.785714 74,84,84
0.585902,0.458839,1.785714 72,82,84
0.589367,0.467181,1.818182 72,81,87
0.582180,0.467181,1.818182 76,84,87
0.574992,0.467181,1.818182 71,80,82
0.578320,0.475833,1.851852 71,82,84
0.570999,0.475833,1.851852 81,83,82
0.574314,0.484811,1.886792 79,84,80
0.566856,0.484811,1.886792 77,82,86
0.570155,0.494134,1.923077 79,82,88
0.562553,0.494134,1.923077 79,83,87
0.554951,0.494134,1.923077 78,83,84
0.558081,0.503823,1.960784 82,83,84
0.550330,0.503823,1.960784 83,83,84
0.553430,0.513899,2.000000 83,82,87
0.545524,0.513899,2.000000 76,83,86
0.537618,0.513899,2.000000 79,83,84
0.540522,0.524387,2.040816 81,83,87
0.532455,0.524387,2.040816 81,83,80
0.535312,0.535312,2.083333 79,84,87
0.527076,0.535312,2.083333 76,86,83
0.529880,0.546702,2.127660 81,88,86
0.521469,0.546702,2.127660 84,84,89
0.513058,0.546702,2.127660 85,84,88
0.515618,0.558586,2.173913 85,88,87
0.507025,0.558586,2.173913 82,88,82
0.509507,0.570999,2.222222 85,88,84
0.500723,0.570999,2.222222 84,89,85
0.503118,0.583977,2.272727 83,87,89
0.494134,0.583977,2.272727 83,88,92
0.485150,0.583977,2.272727 79,85,89
0.487239,0.597558,2.325581 80,85,86
0.478046,0.597558,2.325581 83,89,89
0.480016,0.611785,2.380952 84,90,90
0.470604,0.611785,2.380952 81,90,89
0.472440,0.626707,2.439024 82,88,87
0.462799,0.626707,2.439024 87,88,89
0.453157,0.626707,2.439024 86,85,91
0.454603,0.642374,2.500000 88,87,92
0.444721,0.642374,2.500000 86,86,88
0.445988,0.658845,2.564103 85,88,88
0.435852,0.658845,2.564103 87,89,91
0.425716,0.658845,2.564103 86,87,87
0.426516,0.676184,2.631579 88,87,86
0.416113,0.676184,2.631579 87,89,88
0.416675,0.694459,2.702703 88,90,87
0.405991,0.694459,2.702703 89,89,89
0.406288,0.713749,2.777778 85,91,91
0.395307,0.713749,2.777778 84,89,90
0.384327,0.713749,2.777778 88,87,92
0.384013,0.734142,2.857143 83,87,86
0.372718,0.734142,2.857143 83,89,85
0.372054,0.755735,2.941176 89,89,89
0.360427,0.755735,2.941176 89,89,89
0.348801,0.755735,2.941176 85,87,86
0.347391,0.778636,3.030303 85,89,90
0.335412,0.778636,3.030303 86,88,91
0.333541,0.802968,3.125000 87,88,92
0.321187,0.802968,3.125000 84,86,90
0.308834,0.802968,3.125000 87,86,91
0.306044,0.828870,3.225806 86,86,92
0.293292,0.828870,3.225806 89,82,89
0.280541,0.828870,3.225806 89,87,90
0.276715,0.856499,3.333333 80,85,88
0.263538,0.856499,3.333333 82,87,86
0.258994,0.886033,3.448275 84,87,88
0.245363,0.886033,3.448275 84,84,86
0.231732,0.886033,3.448275 84,83,85
0.225890,0.917678,3.571428 84,83,86
0.211772,0.917678,3.571428 82,82,85
0.204974,0.951666,3.703703 82,80,88
0.190333,0.951666,3.703703 82,83,88
0.175692,0.951666,3.703703 80,82,84
0.167245,0.988268,3.846154 82,82,85
0.152041,0.988268,3.846154 84,84,86
0.136837,0.988268,3.846154 82,83,86
0.126498,1.027799,4.000000 82,83,83
0.110686,1.027799,4.000000 82,82,87
0.094874,1.027799,4.000000 85,84,92
0.082356,1.070624,4.166666 82,81,86
0.065885,1.070624,4.166666 85,82,93
0.051562,1.117173,4.347826 81,81,86
0.034375,1.117173,4.347826 80,82,87
0.017187,1.117173,4.347826 82,80,89
-0.000000,1.167953,4.545454 84,81,89
-0.017969,1.167953,4.545454 81,80,86
-0.035937,1.167953,4.545454 80,79,86
-0.056472,1.223570,4.761904 77,78,81
-0.075297,1.223570,4.761904 77,77,79
-0.098827,1.284749,5.000000 78,77,82
-0.118592,1.284749,5.000000 77,71,81
-0.138358,1.284749,5.000000 73,70,76
-0.166445,1.352367,5.263157 71,68,75
-0.187251,1.352367,5.263157 71,66,75
-0.219615,1.427498,5.555555 68,64,70
-0.241577,1.427498,5.555555 61,65,66
-0.263538,1.427498,5.555555 57,59,64
-0.302294,1.511469,5.882352 57,56,57
-0.325547,1.511469,5.882352 56,51,58
-0.348801,1.511469,5.882352 50,53,55
-0.395307,1.605936,6.249999 48,49,44
-0.420014,1.605936,6.249999 45,43,42
-0.444721,1.605936,6.249999 41,40,37
-0.500723,1.712998,6.666666 42,35,39
-0.527076,1.712998,6.666666 35,33,28
-0.553430,1.712998,6.666666 33,17,27
-0.579784,1.712998,6.666666 13,5,20
-0.606138,1.712998,6.666666 11,8,12
-0.632492,1.712998,6.666666 14,8,1
-0.658845,1.712998,6.666666 30,7,6
-0.642374,1.605936,6.249999 35,7,16
-0.667081,1.605936,6.249999 35,10,13
-0.691788,1.605936,6.249999 41,9,17
-0.674348,1.511469,5.882352 42,6,19
-0.697601,1.511469,5.882352 40,6,21
-0.720854,1.511469,5.882352 44,6,14
-0.744108,1.511469,5.882352 43,7,16
-0.724730,1.427498,5.555555 45,9,21
-0.746691,1.427498,5.555555 43,9,22
-0.768653,1.427498,5.555555 43,7,21
-0.749003,1.352367,5.263157 47,5,19
-0.769809,1.352367,5.263157 48,5,20
-0.790614,1.352367,5.263157 42,5,20
-0.770849,1.284749,5.000000 44,6,21
-0.790615,1.284749,5.000000 42,11,20
-0.810380,1.284749,5.000000 44,8,16
-0.790615,1.223570,4.761904 46,11,17
-0.809439,1.223570,4.761904 43,7,13
-0.828263,1.223570,4.761904 47,7,17
-0.808583,1.167953,4.545454 47,8,13
-0.826552,1.167953,4.545454 43,6,13
-0.844520,1.167953,4.545454 44,7,19
-0.824989,1.117173,4.347826 41,6,18
-0.842176,1.117173,4.347826 42,6,18
-0.859364,1.117173,4.347826 46,6,17
-0.876551,1.117173,4.347826 42,6,15
-0.856499,1.070624,4.166666 45,8,19
-0.455463,0.558586,2.173913 45,12,14
-0.333541,0.401484,1.562500 76,80,65
-0.334491,0.395307,1.538462 83,78,74
-0.335412,0.389318,1.515152 81,78,74
-0.341402,0.389318,1.515152 81,80,76
-0.342206,0.383507,1.492537 82,78,74
-0.348106,0.383507,1.492537 82,81,81
-0.348801,0.377867,1.470588 85,82,79
-0.354614,0.377867,1.470588 82,82,76
-0.355204,0.372391,1.449275 79,83,77
-0.360933,0.372391,1.449275 81,81,80
-0.361424,0.367071,1.428571 80,80,78
-0.367071,0.367071,1.428571 84,81,78
-0.367469,0.361901,1.408451 81,81,77
-0.373036,0.361901,1.408451 80,80,78
-0.373346,0.356875,1.388889 83,79,78
-0.378836,0.356875,1.388889 79,78,74
-0.379062,0.351986,1.369863 81,82,77
-0.384477,0.351986,1.369863 80,83,76
-0.384623,0.347229,1.351351 82,81,79
-0.389965,0.347229,1.351351 85,81,80
-0.390037,0.342600,1.333333 84,81,75
-0.395307,0.342600,1.333333 83,79,68
-0.395307,0.338092,1.315789 81,82,76
-0.400509,0.338092,1.315789 80,79,78
-0.405710,0.338092,1.315789 82,78,79
-0.405575,0.333701,1.298701 79,78,80
-0.410709,0.333701,1.298701 79,79,79
-0.410511,0.329423,1.282051 77,77,72
-0.415579,0.329423,1.282051 80,76,76
-0.415323,0.325253,1.265823 81,78,77
-0.420327,0.325253,1.265823 77,78,71
-0.420014,0.321187,1.250000 80,78,78
-0.424955,0.321187,1.250000 77,76,75
-0.424589,0.317222,1.234568 79,80,75
-0.429470,0.317222,1.234568 79,81,74
-0.429053,0.313353,1.219512 77,78,74
-0.433874,0.313353,1.219512 75,74,72
-0.433409,0.309578,1.204819 74,74,72
-0.438172,0.309578,1.204819 75,77,72
-0.437662,0.305893,1.190476 74,76,71
-0.442368,0.305893,1.190476 75,75,70
-0.441814,0.302294,1.176471 78,74,73
-0.446465,0.302294,1.176471 75,74,75
-0.445870,0.298779,1.162791 73,73,73
-0.450466,0.298779,1.162791 75,70,69
-0.449832,0.295345,1.149425 72,73,68
-0.454376,0.295345,1.149425 73,72,67
-0.458920,0.295345,1.149425 74,71,63
-0.458197,0.291988,1.136364 76,73,63
-0.462689,0.291988,1.136364 72,72,64
-0.461932,0.288708,1.123596 70,71,63
-0.461192,0.285500,1.111111 72,71,66
0.634887,0.383328,1.515152 68,69,78
0.628898,0.383328,1.515152 66,71,73
0.632492,0.389226,1.538462 64,70,74
0.626410,0.389226,1.538462 64,70,76
0.630021,0.395307,1.562500 66,71,75
0.623844,0.395307,1.562500 65,75,77
0.627472,0.401582,1.587302 60,75,78
0.621197,0.401582,1.587302 65,74,79
0.614922,0.401582,1.587302 64,74,77
0.618465,0.408059,1.612903 67,72,75
0.612089,0.408059,1.612903 69,75,78
0.615642,0.414749,1.639344 69,73,78
0.609162,0.414749,1.639344 70,74,77
0.612726,0.421661,1.666667 70,75,78
0.606138,0.421661,1.666667 70,78,80
0.609711,0.428808,1.694915 70,79,78
0.603011,0.428808,1.694915 74,80,80
0.606592,0.436201,1.724138 76,78,82
0.599777,0.436201,1.724138 74,78,84
0.592961,0.436201,1.724138 75,77,84
0.596429,0.443854,1.754386 76,79,84
0.589493,0.443854,1.754386 76,82,85
0.592961,0.451780,1.785714 72,83,81
0.585902,0.451780,1.785714 72,83,81
0.589367,0.459994,1.818182 73,81,83
0.582180,0.459994,1.818182 76,80,83
0.574992,0.459994,1.818182 75,79,89
0.578320,0.468512,1.851852 76,81,89
0.570999,0.468512,1.851852 79,80,86
0.574314,0.477352,1.886792 77,81,84
0.566856,0.477352,1.886792 78,84,86
0.570155,0.486532,1.923077 77,83,85
0.562553,0.486532,1.923077 75,84,85
0.554951,0.486532,1.923077 75,83,84
0.558081,0.496072,1.960784 82,85,86
0.550330,0.496072,1.960784 81,82,83
0.553430,0.505993,2.000000 81,83,84
0.545524,0.505993,2.000000 75,85,85
0.548590,0.516320,2.040816 76,85,83
0.540522,0.516320,2.040816 79,83,87
0.532455,0.516320,2.040816 80,84,83
0.535312,0.527076,2.083333 82,83,85
0.527076,0.527076,2.083333 83,85,83
0.529880,0.538291,2.127660 84,84,87
0.521469,0.538291,2.127660 89,81,92
0.513058,0.538291,2.127660 87,84,92
0.515618,0.549993,2.173913 83,87,86
0.507025,0.549993,2.173913 78,88,80
0.509507,0.562215,2.222222 81,89,86
0.500723,0.562215,2.222222 84,90,88
0.503118,0.574992,2.272727 83,87,90
0.494134,0.574992,2.272727 86,87,91
0.485150,0.574992,2.272727 87,87,88
0.487239,0.588364,2.325581 83,87,86
0.478046,0.588364,2.325581 80,85,85
0.480016,0.602373,2.380952 84,88,89
0.470604,0.602373,2.380952 81,89,88
0.472440,0.617065,2.439024 82,89,88
0.462799,0.617065,2.439024 83,85,88
0.453157,0.617065,2.439024 87,86,91
0.454603,0.632492,2.500000 87,87,87
0.444721,0.632492,2.500000 87,89,84
0.445988,0.648709,2.564103 84,87,83
0.435852,0.648709,2.564103 86,90,86
0.436919,0.665781,2.631579 88,90,86
0.426516,0.665781,2.631579 86,86,84
0.416113,0.665781,2.631579 87,88,90
0.416675,0.683775,2.702703 83,87,86
0.405991,0.683775,2.702703 86,84,85
0.406288,0.702769,2.777778 88,90,89
0.395307,0.702769,2.777778 82,88,86
0.384327,0.702769,2.777778 83,87,88
0.384013,0.722848,2.857143 87,89,88
0.372718,0.722848,2.857143 87,88,86
0.372054,0.744108,2.941176 89,87,90
0.360427,0.744108,2.941176 90,91,93
0.348801,0.744108,2.941176 84,88,90
0.347391,0.766657,3.030303 85,90,93
0.335412,0.766657,3.030303 84,87,91
0.333541,0.790615,3.125000 91,91,95
0.321187,0.790615,3.125000 87,88,92
0.308834,0.790615,3.125000 89,88,94
0.306044,0.816118,3.225806 89,87,94
0.293292,0.816118,3.225806 91,86,92
0.289892,0.843322,3.333333 85,87,89
0.276715,0.843322,3.333333 78,85,88
0.263538,0.843322,3.333333 83,87,88
0.258994,0.872402,3.448275 85,86,88
0.245363,0.872402,3.448275 83,84,88
0.231732,0.872402,3.448275 85,83,89
0.225890,0.903559,3.571428 84,83,86
0.211772,0.903559,3.571428 81,82,83
0.204974,0.937025,3.703703 84,83,90
0.190333,0.937025,3.703703 81,82,87
0.175692,0.937025,3.703703 84,84,86
0.167245,0.973064,3.846154 83,82,84
0.152041,0.973064,3.846154 82,81,85
0.136837,0.973064,3.846154 83,82,87
0.126498,1.011987,4.000000 80,80,84
0.110686,1.011987,4.000000 82,82,92
0.098827,1.054153,4.166666 82,83,90
0.082356,1.054153,4.166666 84,82,87
0.065885,1.054153,4.166666 84,81,92
0.051562,1.099985,4.347826 84,81,89
0.034375,1.099985,4.347826 82,80,89
0.017187,1.099985,4.347826 86,80,92
-0.000000,1.149985,4.545454 85,81,88
-0.017969,1.149985,4.545454 82,79,86
-0.037648,1.204746,4.761904 80,78,88
-0.056472,1.204746,4.761904 78,78,83
-0.075297,1.204746,4.761904 77,76,80
-0.098827,1.264983,5.000000 77,74,80
-0.118592,1.264983,5.000000 77,75,84
-0.138358,1.264983,5.000000 73,70,80
-0.166445,1.331561,5.263157 72,69,79
-0.187251,1.331561,5.263157 72,66,76
-0.219615,1.405537,5.555555 70,64,69
-0.241577,1.405537,5.555555 65,62,66
-0.263538,1.405537,5.555555 63,57,66
-0.302294,1.488215,5.882352 64,58,61
-0.325547,1.488215,5.882352 61,54,61
-0.348801,1.488215,5.882352 54,53,60
-0.395307,1.581229,6.249999 57,51,50
-0.420014,1.581229,6.249999 53,45,46
-0.474369,1.686644,6.666666 48,42,41
-0.500723,1.686644,6.666666 41,39,40
-0.527076,1.686644,6.666666 39,35,27
-0.592961,1.807119,7.142857 30,12,18
-0.579784,1.686644,6.666666 17,10,22
-0.606138,1.686644,6.666666 8,10,4
-0.632492,1.686644,6.666666 14,7,10
-0.658845,1.686644,6.666666 30,4,18
-0.642374,1.581229,6.249999 33,2,17
-0.667081,1.581229,6.249999 36,7,15
-0.691788,1.581229,6.249999 40,6,19
-0.716494,1.581229,6.249999 42,4,22
-0.697601,1.488215,5.882352 44,4,24
-0.720854,1.488215,5.882352 39,6,15
-0.744108,1.488215,5.882352 46,6,17
-0.724730,1.405537,5.555555 42,8,19
-0.746691,1.405537,5.555555 48,8,22
-0.768653,1.405537,5.555555 41,5,18
-0.749003,1.331561,5.263157 46,9,17
-0.769809,1.331561,5.263157 46,4,14
-0.790614,1.331561,5.263157 48,5,21
-0.770849,1.264983,5.000000 44,5,19
-0.790615,1.264983,5.000000 43,11,20
-0.810380,1.264983,5.000000 47,10,19
-0.790615,1.204746,4.761904 43,9,17
-0.809439,1.204746,4.761904 43,8,13
-0.828263,1.204746,4.761904 48,9,21
-0.847087,1.204746,4.761904 46,6,16
-0.826552,1.149985,4.545454 49,10,21
-0.844520,1.149985,4.545454 46,6,20
-0.862489,1.149985,4.545454 41,6,18
-0.842176,1.099985,4.347826 43,9,18
-0.859364,1.099985,4.347826 46,5,17
-0.876551,1.099985,4.347826 49,6,6
-0.856499,1.054153,4.166666 49,9,17
-0.445772,0.538291,2.127660 44,12,15
-0.333541,0.395307,1.562500 73,79,69
-0.334491,0.389226,1.538462 81,76,70
-0.335412,0.383328,1.515152 81,81,74
-0.341402,0.383328,1.515152 79,79,75
-0.342206,0.377607,1.492537 75,74,75
-0.348106,0.377607,1.492537 77,80,76
-0.348801,0.372054,1.470588 85,82,81
-0.354614,0.372054,1.470588 82,81,77
-0.355204,0.366662,1.449275 79,83,74
-0.360933,0.366662,1.449275 79,82,75
-0.361424,0.361424,1.428571 78,79,81
-0.367071,0.361424,1.428571 84,83,81
-0.367469,0.356333,1.408451 79,79,77
-0.373036,0.356333,1.408451 77,79,77
-0.373346,0.351384,1.388889 84,80,80
-0.378836,0.351384,1.388889 79,82,77
-0.379062,0.346571,1.369863 78,80,74
-0.384477,0.346571,1.369863 79,81,74
-0.384623,0.341887,1.351351 81,82,77
-0.389965,0.341887,1.351351 77,78,72
-0.390037,0.337329,1.333333 78,79,71
-0.395307,0.337329,1.333333 80,80,72
-0.400578,0.337329,1.333333 77,78,80
-0.400509,0.332890,1.315789 78,78,80
-0.405710,0.332890,1.315789 79,77,78
-0.405575,0.328567,1.298701 81,77,76
-0.410709,0.328567,1.298701 80,78,74
-0.410511,0.324355,1.282051 77,81,67
-0.415579,0.324355,1.282051 82,79,74
-0.415323,0.320249,1.265823 79,76,71
-0.420327,0.320249,1.265823 80,81,72
-0.420014,0.316246,1.250000 79,75,76
-0.424955,0.316246,1.250000 78,77,74
-0.424589,0.312342,1.234568 78,77,72
-0.429470,0.312342,1.234568 76,76,70
-0.429053,0.308533,1.219512 78,78,75
-0.433874,0.308533,1.219512 76,76,76
-0.433409,0.304815,1.204819 77,76,74
-0.438172,0.304815,1.204819 74,73,71
-0.437662,0.301187,1.190476 76,75,73
-0.442368,0.301187,1.190476 73,74,69
-0.441814,0.297643,1.176471 75,73,72
-0.446465,0.297643,1.176471 73,73,72
-0.451115,0.297643,1.176471 74,75,72
-0.450466,0.294182,1.162791 71,70,67
-0.455063,0.294182,1.162791 72,74,73
-0.454376,0.290801,1.149425 74,74,72
-0.458920,0.290801,1.149425 75,71,68
-0.458197,0.287496,1.136364 73,68,64
-0.462689,0.287496,1.136364 69,72,64
-0.461932,0.284266,1.123596 69,72,64
-0.461192,0.281107,1.111111 71,72,66
0.634887,0.377339,1.515152 68,68,75
0.628898,0.377339,1.515152 65,72,71
0.632492,0.383144,1.538462 62,70,72
0.626410,0.383144,1.538462 62,70,73
0.630021,0.389131,1.562500 65,72,75
0.623844,0.389131,1.562500 66,75,77
0.627472,0.395307,1.587302 60,75,76
0.621197,0.395307,1.587302 64,74,76
0.614922,0.395307,1.587302 62,73,74
0.618465,0.401683,1.612903 69,73,77
0.612089,0.401683,1.612903 70,73,78
0.615642,0.408268,1.639344 69,73,78
0.609162,0.408268,1.639344 69,74,77
0.612726,0.415073,1.666667 71,76,79
0.606138,0.415073,1.666667 72,76,79
0.599549,0.415073,1.666667 66,76,77
0.603011,0.422108,1.694915 69,77,79
0.596311,0.422108,1.694915 72,79,82
0.599777,0.429386,1.724138 68,77,80
0.592961,0.429386,1.724138 71,78,81
0.596429,0.436919,1.754386 73,78,82
0.589493,0.436919,1.754386 73,81,85
0.592961,0.444721,1.785714 74,81,87
0.585902,0.444721,1.785714 74,83,87
0.578843,0.444721,1.785714 74,81,86
0.582180,0.452807,1.818182 79,83,87
0.574992,0.452807,1.818182 75,80,87
0.578320,0.461192,1.851852 75,83,86
0.570999,0.461192,1.851852 77,81,89
0.574314,0.469894,1.886792 79,82,91
0.566856,0.469894,1.886792 78,82,90
0.570155,0.478930,1.923077 77,84,90
0.562553,0.478930,1.923077 76,85,87
0.554951,0.478930,1.923077 79,87,89
0.558081,0.488321,1.960784 78,84,85
0.550330,0.488321,1.960784 78,84,84
0.553430,0.498087,2.000000 78,86,84
0.545524,0.498087,2.000000 76,85,84
0.548590,0.508252,2.040816 78,84,84
0.540522,0.508252,2.040816 74,85,83
0.532455,0.508252,2.040816 79,86,85
0.535312,0.518841,2.083333 81,87,87
0.527076,0.518841,2.083333 81,81,83
0.529880,0.529880,2.127660 87,85,85
0.521469,0.529880,2.127660 84,86,85
0.524212,0.541399,2.173913 82,87,92
0.515618,0.541399,2.173913 84,89,85
0.507025,0.541399,2.173913 85,88,80
