0.8756243306154039,-2.043123438102609,2.407058823529412 126,126,134
0.8431937998518704,-2.043123438102609,2.407058823529412 128,124,132
0.8107632690883368,-2.043123438102609,2.407058823529412 123,119,125
0.7817564893731529,-2.0521107846045266,2.4176470588235293 108,101,109
0.7491833023159382,-2.0521107846045266,2.4176470588235293 107,98,111
0.7197485537197107,-2.061098131106444,2.428235294117647 114,112,118
0.6840369282015087,-2.0521107846045266,2.4176470588235293 116,114,112
0.6086668530399244,-1.917300587075762,2.2588235294117647 81,80,71
0.5673916320681546,-1.8813512010680917,2.2164705882352944 26,22,21
0.5375289145908834,-1.8813512010680917,2.2164705882352944 21,12,14
0.5100913541061929,-1.8903385475700092,2.2270588235294118 19,10,10
0.48236848103414015,-1.8993258940719266,2.2376470588235295 14,5,7
0.4543602953747248,-1.908313240573844,2.248235294117647 11,7,2
0.42406960901640983,-1.908313240573844,2.248235294117647 9,7,3
0.39377892265809483,-1.908313240573844,2.248235294117647 5,7,1
0.3652001118239547,-1.917300587075762,2.2588235294117647 7,9,5
0.33476676917195847,-1.917300587075762,2.2588235294117647 8,6,7
0.3043334265199622,-1.917300587075762,2.2588235294117647 12,10,3
0.273900083867966,-1.917300587075762,2.2588235294117647 10,10,2
0.24346674121596978,-1.917300587075762,2.2588235294117647 3,5,0
0.21303339856397357,-1.917300587075762,2.2588235294117647 2,10,5
0.18260005591197734,-1.917300587075762,2.2588235294117647 3,8,2
0.1521667132599811,-1.917300587075762,2.2588235294117647 7,6,2
0.12230399578270983,-1.9262879335776795,2.2694117647058825 6,7,2
0.09172799683703237,-1.9262879335776795,2.2694117647058825 2,4,0
0.061437310478717366,-1.9352752800795971,2.28 10,5,1
0.030718655239358683,-1.9352752800795971,2.28 6,1,0
-0.0,-1.9442626265815153,2.290588235294118 7,7,5
-0.031003967826721154,-1.9532499730834325,2.3011764705882354 2,4,3
-0.07313512656057843,-2.3037564866582203,2.7141176470588237 13,11,16
-0.11184253424608612,-2.3486932191678083,2.767058823529412 14,14,12
-0.15026462934423135,-2.3666679121716436,2.788235294117647 16,14,18
-0.18854406814869534,-2.3756552586735613,2.7988235294117647 9,13,18
-0.22625288177843442,-2.3756552586735613,2.7988235294117647 7,12,7
-0.2629631013524048,-2.3666679121716436,2.788235294117647 12,12,14
-0.2845517537961647,-2.240845061144797,2.64 7,8,3
-0.28545524365614583,-1.9981867055930207,2.3541176470588234 1,1,0
-0.3171724929512731,-1.9981867055930207,2.3541176470588234 7,6,2
-0.3488897422464004,-1.9981867055930207,2.3541176470588234 3,4,0
-0.3806069915415278,-1.9981867055930207,2.3541176470588234 2,2,0
-0.41232424083665503,-1.9981867055930207,2.3541176470588234 2,2,0
-0.44404149013178235,-1.9981867055930207,2.3541176470588234 2,2,2
-0.47361889502169113,-1.9891993590911028,2.3435294117647056 3,1,1
-0.5051934880231372,-1.9891993590911028,2.3435294117647056 2,4,1
-0.5367680810245833,-1.9891993590911028,2.3435294117647056 1,4,1
-0.5683426740260294,-1.9891993590911028,2.3435294117647056 1,3,0
-0.602627736607419,-1.9981867055930207,2.3541176470588234 1,2,1
-0.6343449859025462,-1.9981867055930207,2.3541176470588234 2,2,1
-0.6660622351976736,-1.9981867055930207,2.3541176470588234 3,4,0
-0.700917922953788,-2.007174052094938,2.364705882352941 5,9,3
-0.7327778285425965,-2.007174052094938,2.364705882352941 8,6,4
-0.764637734131405,-2.007174052094938,2.364705882352941 3,1,0
-0.7964976397202136,-2.007174052094938,2.364705882352941 10,6,1
-0.8246484816733101,-1.9981867055930207,2.3541176470588234 17,14,3
-0.852514011039044,-1.9891993590911028,2.3435294117647056 15,14,5
-0.8760998515943413,-1.9712246660872679,2.3223529411764705 19,11,13
-0.8991150669749134,-1.9532499730834325,2.3011764705882354 14,14,9
-0.9215596571807605,-1.9352752800795971,2.28 23,12,12
-0.8284526495048097,-1.6836295780259036,1.983529411764706 21,13,2
-0.7821369061563029,-1.5398320339952214,1.8141176470588236 9,8,2
-0.8065786844736874,-1.5398320339952214,1.8141176470588236 4,5,7
-0.82617014880591,-1.530844687493304,1.803529411764706 6,5,11
-0.8504692708296133,-1.530844687493304,1.803529411764706 8,7,5
-0.8747683928533165,-1.530844687493304,1.803529411764706 14,12,14
-0.8990675148770196,-1.530844687493304,1.803529411764706 9,14,16
-0.9233666369007231,-1.530844687493304,1.803529411764706 10,9,10
-0.9421021634708582,-1.5218573409913863,1.7929411764705885 9,7,9
-0.9662586292008802,-1.5218573409913863,1.7929411764705885 10,9,12
-0.9904150949309021,-1.5218573409913863,1.7929411764705885 8,7,12
-1.0145715606609242,-1.5218573409913863,1.7929411764705885 11,4,12
-1.0387280263909462,-1.5218573409913863,1.7929411764705885 25,15,15
-1.056607615198994,-1.5128699944894688,1.782352941176471 35,29,18
-1.08704095785099,-1.5218573409913863,1.7929411764705885 32,26,15
-1.1046352340716754,-1.5128699944894688,1.782352941176471 19,11,14
-1.1353538893110342,-1.5218573409913863,1.7929411764705885 10,9,13
-1.1595103550410564,-1.5218573409913863,1.7929411764705885 13,8,21
-1.1906569791614585,-1.530844687493304,1.803529411764706 14,5,20
-1.2220889158692232,-1.5398320339952214,1.8141176470588236 18,6,16
-1.246530694186608,-1.5398320339952214,1.8141176470588236 15,8,2
-1.2635543452325684,-1.530844687493304,1.803529411764706 21,14,4
-1.2802926836911663,-1.5218573409913863,1.7929411764705885 25,16,9
-1.289042269703615,-1.503882647987551,1.771764705882353 25,12,14
-1.297221230541339,-1.4859079549837158,1.7505882352941178 16,11,9
-1.2089645368505502,-1.3600851039568687,1.6023529411764708 67,47,39
-1.2305531892943098,-1.3600851039568687,1.6023529411764708 91,66,55
-1.2521418417380699,-1.3600851039568687,1.6023529411764708 93,71,57
-1.2737304941818295,-1.3600851039568687,1.6023529411764708 102,79,63
-1.2953191466255893,-1.3600851039568687,1.6023529411764708 103,80,66
-1.3169077990693492,-1.3600851039568687,1.6023529411764708 103,80,66
-1.338496451513109,-1.3600851039568687,1.6023529411764708 102,80,64
-1.3600851039568687,-1.3600851039568687,1.6023529411764708 107,83,67
-1.3816737564006287,-1.3600851039568687,1.6023529411764708 105,78,67
-1.4032624088443886,-1.3600851039568687,1.6023529411764708 106,80,66
-1.4248510612881482,-1.3600851039568687,1.6023529411764708 98,75,60
-1.446439713731908,-1.3600851039568687,1.6023529411764708 100,77,67
-1.468028366175668,-1.3600851039568687,1.6023529411764708 103,79,68
-1.4896170186194277,-1.3600851039568687,1.6023529411764708 104,81,69
-1.5112056710631876,-1.3600851039568687,1.6023529411764708 103,81,70
-1.5327943235069474,-1.3600851039568687,1.6023529411764708 104,80,68
-1.554382975950707,-1.3600851039568687,1.6023529411764708 101,76,68
-1.575971628394467,-1.3600851039568687,1.6023529411764708 102,78,70
-1.597560280838227,-1.3600851039568687,1.6023529411764708 101,77,65
-1.6191489332819866,-1.3600851039568687,1.6023529411764708 100,75,69
-1.6407375857257465,-1.3600851039568687,1.6023529411764708 101,78,63
-1.6623262381695063,-1.3600851039568687,1.6023529411764708 99,75,63
-1.6839148906132662,-1.3600851039568687,1.6023529411764708 97,72,66
-1.7055035430570258,-1.3600851039568687,1.6023529411764708 98,73,67
-1.7270921955007856,-1.3600851039568687,1.6023529411764708 97,75,61
-1.7486808479445457,-1.3600851039568687,1.6023529411764708 98,75,59
-1.7702695003883053,-1.3600851039568687,1.6023529411764708 96,72,63
-1.7918581528320652,-1.3600851039568687,1.6023529411764708 95,74,69
-1.8134468052758252,-1.3600851039568687,1.6023529411764708 99,74,72
-1.8350354577195849,-1.3600851039568687,1.6023529411764708 95,73,64
-1.8566241101633447,-1.3600851039568687,1.6023529411764708 93,69,58
-1.8782127626071043,-1.3600851039568687,1.6023529411764708 96,72,60
-1.8998014150508644,-1.3600851039568687,1.6023529411764708 90,68,57
-1.9086936573569946,-1.3510977574549512,1.5917647058823532 90,68,55
-1.9301396535070732,-1.3510977574549512,1.5917647058823532 88,68,51
-1.9515856496571518,-1.3510977574549512,1.5917647058823532 87,68,51
-1.9730316458072303,-1.3510977574549512,1.5917647058823532 86,67,53
-1.994477641957309,-1.3510977574549512,1.5917647058823532 86,61,54
-2.0159236381073877,-1.3510977574549512,1.5917647058823532 85,61,54
-2.037369634257466,-1.3510977574549512,1.5917647058823532 80,61,55
-2.058815630407545,-1.3510977574549512,1.5917647058823532 83,60,55
-2.0802616265576233,-1.3510977574549512,1.5917647058823532 81,59,48
-2.101707622707702,-1.3510977574549512,1.5917647058823532 77,57,41
-2.123153618857781,-1.3510977574549512,1.5917647058823532 83,61,42
-2.1445996150078592,-1.3510977574549512,1.5917647058823532 83,63,42
-2.1660456111579376,-1.3510977574549512,1.5917647058823532 79,56,33
-2.187491607308016,-1.3510977574549512,1.5917647058823532 83,55,34
-2.2089376034580948,-1.3510977574549512,1.5917647058823532 77,55,30
-2.2303835996081736,-1.3510977574549512,1.5917647058823532 76,53,40
-2.2668085065947814,-1.3600851039568687,1.6023529411764708 77,55,43
2.3337618604291728,-1.4090637647874251,1.6341176470588237 50,32,27
2.3117452391043694,-1.4090637647874251,1.6341176470588237 50,33,26
2.289728617779566,-1.4090637647874251,1.6341176470588237 42,29,19
2.282405594703929,-1.418193767583024,1.6447058823529412 26,17,11
2.289348200996416,-1.4364537731742217,1.6658823529411766 16,8,5
2.266903610790569,-1.4364537731742217,1.6658823529411766 18,9,0
2.2159277618484747,-1.418193767583024,1.6447058823529412 37,23,12
2.1796455111555484,-1.4090637647874251,1.6341176470588237 39,24,17
2.157628889830745,-1.4090637647874251,1.6341176470588237 39,24,16
2.1356122685059415,-1.4090637647874251,1.6341176470588237 39,23,8
2.1135956471811377,-1.4090637647874251,1.6341176470588237 42,21,14
2.0915790258563343,-1.4090637647874251,1.6341176470588237 39,22,15
2.069562404531531,-1.4090637647874251,1.6341176470588237 34,24,11
2.0475457832067274,-1.4090637647874251,1.6341176470588237 37,25,9
2.0255291618819236,-1.4090637647874251,1.6341176470588237 43,26,13
2.0554394314570885,-1.4455837759698207,1.6764705882352942 23,10,2
2.0585303178201824,-1.4638437815610186,1.6976470588235297 17,8,7
2.0356577587332914,-1.4638437815610186,1.6976470588235297 16,9,17
2.012785199646401,-1.4638437815610186,1.6976470588235297 16,6,13
1.9278571528081732,-1.418193767583024,1.6447058823529412 39,25,11
1.8934294339331028,-1.4090637647874251,1.6341176470588237 43,26,15
1.871412812608299,-1.4090637647874251,1.6341176470588237 46,26,23
1.8493961912834955,-1.4090637647874251,1.6341176470588237 50,29,24
1.827379569958692,-1.4090637647874251,1.6341176470588237 60,38,27
1.8053629486338885,-1.4090637647874251,1.6341176470588237 62,36,23
1.783346327309085,-1.4090637647874251,1.6341176470588237 63,37,23
1.7613297059842816,-1.4090637647874251,1.6341176470588237 64,40,24
1.7393130846594778,-1.4090637647874251,1.6341176470588237 63,40,22
1.7172964633346743,-1.4090637647874251,1.6341176470588237 61,39,23
1.695279842009871,-1.4090637647874251,1.6341176470588237 61,40,21
1.6732632206850675,-1.4090637647874251,1.6341176470588237 62,41,21
1.651246599360264,-1.4090637647874251,1.6341176470588237 61,36,16
1.6292299780354604,-1.4090637647874251,1.6341176470588237 64,36,20
1.6072133567106568,-1.4090637647874251,1.6341176470588237 62,35,14
1.5851967353858534,-1.4090637647874251,1.6341176470588237 62,38,12
1.5631801140610497,-1.4090637647874251,1.6341176470588237 67,40,21
1.5411634927362463,-1.4090637647874251,1.6341176470588237 73,41,25
1.519146871411443,-1.4090637647874251,1.6341176470588237 69,35,24
1.4971302500866392,-1.4090637647874251,1.6341176470588237 66,33,18
1.4751136287618358,-1.4090637647874251,1.6341176470588237 67,38,21
1.4530970074370322,-1.4090637647874251,1.6341176470588237 67,42,20
1.4310803861122288,-1.4090637647874251,1.6341176470588237 67,41,18
1.4090637647874251,-1.4090637647874251,1.6341176470588237 70,42,21
1.3870471434626217,-1.4090637647874251,1.6341176470588237 70,41,20
1.3650305221378183,-1.4090637647874251,1.6341176470588237 77,46,26
1.3430139008130146,-1.4090637647874251,1.6341176470588237 83,56,30
1.3209972794882112,-1.4090637647874251,1.6341176470588237 91,65,38
1.2989806581634076,-1.4090637647874251,1.6341176470588237 91,65,40
1.276964036838604,-1.4090637647874251,1.6341176470588237 94,65,43
1.2549474155138005,-1.4090637647874251,1.6341176470588237 93,65,43
1.224942041742848,-1.3999337619918262,1.6235294117647059 93,67,44
1.2030680767117257,-1.3999337619918262,1.6235294117647059 95,68,47
1.1811941116806033,-1.3999337619918262,1.6235294117647059 98,66,51
1.1593201466494811,-1.3999337619918262,1.6235294117647059 100,68,55
1.1374461816183588,-1.3999337619918262,1.6235294117647059 100,69,50
1.1155722165872364,-1.3999337619918262,1.6235294117647059 99,67,51
1.0936982515561142,-1.3999337619918262,1.6235294117647059 97,67,50
1.0718242865249918,-1.3999337619918262,1.6235294117647059 98,69,50
1.0499503214938697,-1.3999337619918262,1.6235294117647059 97,71,50
1.0280763564627475,-1.3999337619918262,1.6235294117647059 97,70,51
1.0062023914316252,-1.3999337619918262,1.6235294117647059 101,69,54
0.9843284264005029,-1.3999337619918262,1.6235294117647059 94,60,43
0.9624544613693805,-1.3999337619918262,1.6235294117647059 92,56,40
0.9405804963382582,-1.3999337619918262,1.6235294117647059 92,63,47
0.9906053033224771,-1.5094937955390126,1.7505882352941178 97,74,56
1.2068246924453314,-1.883823910158566,2.184705882352941 129,112,103
1.3314587410248349,-2.1303339856397354,2.4705882352941178 135,132,134
1.2926086770456457,-2.1212039828441367,2.46 124,123,126
1.2594648648137061,-2.1212039828441367,2.46 103,99,102
1.2210427697155608,-2.1120739800485375,2.449411764705882 113,109,110
1.1880416137773024,-2.1120739800485375,2.449411764705882 134,132,133
1.1500474875602007,-2.102943977252939,2.4388235294117644 141,140,145
1.1171889879156236,-2.102943977252939,2.4388235294117644 134,136,142
1.0843304882710465,-2.102943977252939,2.4388235294117644 126,126,134
1.0514719886264694,-2.102943977252939,2.4388235294117644 131,131,141
1.0141911438777742,-2.09381397445734,2.428235294117647 126,129,138
0.9814753005268781,-2.09381397445734,2.428235294117647 127,130,139
0.9487594571759822,-2.09381397445734,2.428235294117647 130,130,140
0.9160436138250863,-2.09381397445734,2.428235294117647 128,128,140
0.8833277704741903,-2.09381397445734,2.428235294117647 127,123,140
0.8506119271232944,-2.09381397445734,2.428235294117647 126,124,134
0.8214624911144291,-2.102943977252939,2.4388235294117644 127,126,131
0.788603991469852,-2.102943977252939,2.4388235294117644 128,125,136
0.7557454918252748,-2.102943977252939,2.4388235294117644 114,111,121
0.7260254306416848,-2.1120739800485375,2.449411764705882 100,97,96
0.6930242747034264,-2.1120739800485375,2.449411764705882 109,105,110
0.6628762446387928,-2.1212039828441367,2.46 115,114,119
0.6243114932469661,-2.102943977252939,2.4388235294117644 110,106,109
0.5580714208809807,-1.9842539409101538,2.3011764705882354 72,66,65
0.5125165110987738,-1.9294739241365606,2.2376470588235295 18,16,10
0.4846509817330398,-1.938603926932159,2.248235294117647 18,14,7
0.4586399841851619,-1.9568639325233572,2.2694117647058825 17,5,11
0.43006117335102156,-1.9659939353189557,2.28 7,5,19
0.401197049929519,-1.9751239381145551,2.290588235294118 3,9,9
0.3703357383964791,-1.9751239381145551,2.290588235294118 7,8,5
0.3410436460939327,-1.9842539409101538,2.3011764705882354 6,6,9
0.3100396782672115,-1.9842539409101538,2.3011764705882354 4,7,6
0.27903571044049036,-1.9842539409101538,2.3011764705882354 4,11,0
0.24803174261376923,-1.9842539409101538,2.3011764705882354 0,8,0
0.21702777478704807,-1.9842539409101538,2.3011764705882354 1,8,0
0.18602380696032692,-1.9842539409101538,2.3011764705882354 5,8,1
0.15501983913360576,-1.9842539409101538,2.3011764705882354 4,9,2
0.12401587130688461,-1.9842539409101538,2.3011764705882354 3,10,3
0.09301190348016346,-1.9842539409101538,2.3011764705882354 2,7,3
0.06200793565344231,-1.9842539409101538,2.3011764705882354 12,8,5
0.03114662412040238,-1.9933839437057523,2.3117647058823527 5,1,4
-0.0,-1.9933839437057523,2.3117647058823527 1,3,4
-0.03128928041408362,-2.0025139465013515,2.3223529411764705 2,5,4
-0.07256450138585349,-2.3220640443473117,2.692941176470588 16,8,15
-0.11184253424608612,-2.3859740639165037,2.767058823529412 17,15,17
-0.1496940041695064,-2.3951040667121024,2.777647058823529 13,12,18
-0.18783078668028919,-2.4042340695077016,2.788235294117647 16,10,20
-0.22625288177843442,-2.4133640723033003,2.7988235294117647 20,9,15
-0.2629631013524048,-2.4042340695077016,2.788235294117647 14,7,8
-0.2868342544950644,-2.294674035960515,2.6611764705882353 12,6,8
-0.288023056942408,-2.048163960479346,2.375294117647059 9,5,5
-0.3200256188248978,-2.048163960479346,2.375294117647059 1,3,0
-0.35202818070738756,-2.048163960479346,2.375294117647059 0,6,0
-0.3840307425898774,-2.048163960479346,2.375294117647059 2,9,2
-0.41788783629022314,-2.0572939632749443,2.3858823529411763 2,4,0
-0.4500330544663941,-2.0572939632749443,2.3858823529411763 6,2,0
-0.4800384282373467,-2.048163960479346,2.375294117647059 3,4,0
-0.5120409901198365,-2.048163960479346,2.375294117647059 2,2,0
-0.5440435520023262,-2.048163960479346,2.375294117647059 1,1,1
-0.5786139271710782,-2.0572939632749443,2.3858823529411763 2,2,3
-0.6107591453472492,-2.0572939632749443,2.3858823529411763 2,5,2
-0.6429043635234202,-2.0572939632749443,2.3858823529411763 4,3,1
-0.6750495816995912,-2.0572939632749443,2.3858823529411763 2,3,1
-0.7103332383367493,-2.0664239660705435,2.396470588235294 0,9,4
-0.7426211128066016,-2.0664239660705435,2.396470588235294 12,8,1
-0.7714852362281042,-2.0572939632749443,2.3858823529411763 14,3,7
-0.8000640470622445,-2.048163960479346,2.375294117647059 18,11,6
-0.8283575453090222,-2.039033957683747,2.364705882352941 23,14,3
-0.852514011039044,-2.020773952092549,2.3435294117647056 17,12,11
-0.8760998515943413,-2.0025139465013515,2.3223529411764705 14,13,10
-0.8949780344581578,-1.9751239381145551,2.290588235294118 14,12,0
-0.7888893040572147,-1.6829638486553913,1.9517647058823533 16,11,6
-0.7665398180471549,-1.5825338179038038,1.835294117647059 27,12,17
-0.7912669089519019,-1.5825338179038038,1.835294117647059 17,9,6
-0.8159939998566488,-1.5825338179038038,1.835294117647059 8,4,0
-0.8358707767762338,-1.5734038151082048,1.8247058823529414 7,8,3
-0.8604552113872995,-1.5734038151082048,1.8247058823529414 3,1,2
-0.8850396459983653,-1.5734038151082048,1.8247058823529414 5,8,8
-0.9096240806094309,-1.5734038151082048,1.8247058823529414 2,10,10
-0.9342085152204966,-1.5734038151082048,1.8247058823529414 15,11,15
-0.9532293543779942,-1.5642738123126059,1.8141176470588236 15,12,14
-0.9776711326953786,-1.5642738123126059,1.8141176470588236 7,7,5
-1.0021129110127631,-1.5642738123126059,1.8141176470588236 7,6,9
-1.0265546893301476,-1.5642738123126059,1.8141176470588236 11,8,18
-1.050996467647532,-1.5642738123126059,1.8141176470588236 5,8,0
-1.0754382459649166,-1.5642738123126059,1.8141176470588236 8,14,13
-1.099880024282301,-1.5642738123126059,1.8141176470588236 12,11,10
-1.1243218025996855,-1.5642738123126059,1.8141176470588236 33,24,14
-1.14876358091707,-1.5642738123126059,1.8141176470588236 37,27,25
-1.1800528613311536,-1.5734038151082048,1.8247058823529414 21,11,22
-1.2116274543325998,-1.5825338179038038,1.835294117647059 14,6,13
-1.2363545452373466,-1.5825338179038038,1.835294117647059 14,10,0
-1.2538061651643508,-1.5734038151082048,1.8247058823529414 15,14,12
-1.2709724725039924,-1.5642738123126059,1.8141176470588236 24,17,9
-1.272731900126061,-1.5368838039258095,1.782352941176471 25,16,7
-1.2813388298448285,-1.5186237983346116,1.7611764705882353 13,10,6
-1.297221230541339,-1.5094937955390126,1.7505882352941178 14,12,2
-1.224942041742848,-1.3999337619918262,1.6235294117647059 69,49,37
-1.2468160067739702,-1.3999337619918262,1.6235294117647059 96,67,59
-1.2686899718050926,-1.3999337619918262,1.6235294117647059 96,69,57
-1.2905639368362147,-1.3999337619918262,1.6235294117647059 98,72,59
-1.312437901867337,-1.3999337619918262,1.6235294117647059 105,77,65
-1.3343118668984593,-1.3999337619918262,1.6235294117647059 107,79,68
-1.3561858319295816,-1.3999337619918262,1.6235294117647059 105,80,69
-1.378059796960704,-1.3999337619918262,1.6235294117647059 104,79,70
-1.3999337619918262,-1.3999337619918262,1.6235294117647059 104,77,71
-1.4218077270229486,-1.3999337619918262,1.6235294117647059 104,78,66
-1.443681692054071,-1.3999337619918262,1.6235294117647059 98,75,59
-1.465555657085193,-1.3999337619918262,1.6235294117647059 100,77,65
-1.4874296221163155,-1.3999337619918262,1.6235294117647059 102,81,66
-1.5093035871474376,-1.3999337619918262,1.6235294117647059 107,81,68
-1.5311775521785598,-1.3999337619918262,1.6235294117647059 105,78,68
-1.5530515172096822,-1.3999337619918262,1.6235294117647059 101,76,70
-1.5749254822408045,-1.3999337619918262,1.6235294117647059 101,77,66
-1.5967994472719267,-1.3999337619918262,1.6235294117647059 102,74,70
-1.618673412303049,-1.3999337619918262,1.6235294117647059 101,74,65
-1.6405473773341714,-1.3999337619918262,1.6235294117647059 98,74,70
-1.6624213423652936,-1.3999337619918262,1.6235294117647059 98,78,72
-1.684295307396416,-1.3999337619918262,1.6235294117647059 99,75,70
-1.7061692724275384,-1.3999337619918262,1.6235294117647059 100,73,67
-1.7280432374586603,-1.3999337619918262,1.6235294117647059 97,75,60
-1.7499172024897827,-1.3999337619918262,1.6235294117647059 98,79,58
-1.771791167520905,-1.3999337619918262,1.6235294117647059 97,74,60
-1.7936651325520272,-1.3999337619918262,1.6235294117647059 99,74,67
-1.8155390975831496,-1.3999337619918262,1.6235294117647059 96,75,72
-1.837413062614272,-1.3999337619918262,1.6235294117647059 97,71,70
-1.859287027645394,-1.3999337619918262,1.6235294117647059 95,72,64
-1.8811609926765165,-1.3999337619918262,1.6235294117647059 96,73,64
-1.9030349577076389,-1.3999337619918262,1.6235294117647059 94,71,61
-1.9123551688948126,-1.3908037591962275,1.6129411764705883 91,67,57
-1.9340864776322537,-1.3908037591962275,1.6129411764705883 86,63,53
-1.955817786369695,-1.3908037591962275,1.6129411764705883 89,67,54
-1.9775490951071357,-1.3908037591962275,1.6129411764705883 88,66,52
-1.999280403844577,-1.3908037591962275,1.6129411764705883 84,62,48
-2.021011712582018,-1.3908037591962275,1.6129411764705883 85,63,50
-2.042743021319459,-1.3908037591962275,1.6129411764705883 85,62,48
-2.0644743300569,-1.3908037591962275,1.6129411764705883 82,64,49
-2.086205638794341,-1.3908037591962275,1.6129411764705883 84,62,48
-2.1079369475317824,-1.3908037591962275,1.6129411764705883 86,62,46
-2.129668256269223,-1.3908037591962275,1.6129411764705883 85,64,43
-2.151399565006664,-1.3908037591962275,1.6129411764705883 85,63,43
-2.1731308737441055,-1.3908037591962275,1.6129411764705883 83,62,43
-2.1948621824815464,-1.3908037591962275,1.6129411764705883 83,60,38
-2.2165934912189873,-1.3908037591962275,1.6129411764705883 82,53,36
-2.2383247999564286,-1.3908037591962275,1.6129411764705883 81,55,33
-2.2600561086938695,-1.3908037591962275,1.6129411764705883 78,53,32
-2.281787417431311,-1.3908037591962275,1.6129411764705883 78,52,35
2.3640049946895947,-1.449625704290789,1.655294117647059 49,31,32
2.3417030607774283,-1.449625704290789,1.655294117647059 50,31,29
2.3194011268652623,-1.449625704290789,1.655294117647059 47,32,25
2.2970991929530964,-1.449625704290789,1.655294117647059 28,18,13
2.3038991429519013,-1.468171022469349,1.6764705882352942 14,7,3
2.266903610790569,-1.4588983633800692,1.6658823529411766 20,12,3
2.2301933912165985,-1.449625704290789,1.655294117647059 40,25,20
2.2078914573044326,-1.449625704290789,1.655294117647059 47,29,27
2.1855895233922666,-1.449625704290789,1.655294117647059 46,27,21
2.1632875894801007,-1.449625704290789,1.655294117647059 49,27,16
2.1409856555679347,-1.449625704290789,1.655294117647059 50,24,11
2.118683721655769,-1.449625704290789,1.655294117647059 42,24,10
2.0963817877436024,-1.449625704290789,1.655294117647059 37,24,11
2.0740798538314364,-1.449625704290789,1.655294117647059 39,24,15
2.0517779199192705,-1.449625704290789,1.655294117647059 37,18,14
2.0684211541820807,-1.4774436815586292,1.6870588235294117 24,10,8
2.0585303178201824,-1.4867163406479096,1.6976470588235297 14,7,8
2.0356577587332914,-1.4867163406479096,1.6976470588235297 11,6,11
2.012785199646401,-1.4867163406479096,1.6976470588235297 18,6,16
1.9402682503584405,-1.449625704290789,1.655294117647059 44,24,12
1.9179663164462746,-1.449625704290789,1.655294117647059 44,26,13
1.8956643825341086,-1.449625704290789,1.655294117647059 49,32,22
1.8733624486219427,-1.449625704290789,1.655294117647059 57,33,25
1.8510605147097767,-1.449625704290789,1.655294117647059 65,36,29
1.8287585807976108,-1.449625704290789,1.655294117647059 62,35,24
1.8064566468854446,-1.449625704290789,1.655294117647059 64,36,25
1.7841547129732787,-1.449625704290789,1.655294117647059 62,38,22
1.7618527790611127,-1.449625704290789,1.655294117647059 63,41,23
1.7395508451489468,-1.449625704290789,1.655294117647059 59,37,21
1.7172489112367808,-1.449625704290789,1.655294117647059 60,39,20
1.6949469773246146,-1.449625704290789,1.655294117647059 59,38,15
1.6726450434124487,-1.449625704290789,1.655294117647059 63,37,11
1.650343109500283,-1.449625704290789,1.655294117647059 66,35,23
1.628041175588117,-1.449625704290789,1.655294117647059 64,36,20
1.595467988530902,-1.4403530452015088,1.6447058823529412 65,39,18
1.5733087109124173,-1.4403530452015088,1.6447058823529412 70,40,26
1.5511494332939326,-1.4403530452015088,1.6447058823529412 70,36,24
1.5289901556754477,-1.4403530452015088,1.6447058823529412 68,36,24
1.506830878056963,-1.4403530452015088,1.6447058823529412 69,40,23
1.4846716004384783,-1.4403530452015088,1.6447058823529412 70,42,21
1.4625123228199937,-1.4403530452015088,1.6447058823529412 68,41,17
1.4403530452015088,-1.4403530452015088,1.6447058823529412 70,38,23
1.418193767583024,-1.4403530452015088,1.6447058823529412 74,47,26
1.3960344899645394,-1.4403530452015088,1.6447058823529412 83,57,33
1.3738752123460545,-1.4403530452015088,1.6447058823529412 91,64,40
1.3517159347275698,-1.4403530452015088,1.6447058823529412 97,63,39
1.329556657109085,-1.4403530452015088,1.6447058823529412 96,64,43
1.3073973794906004,-1.4403530452015088,1.6447058823529412 94,63,43
1.2852381018721155,-1.4403530452015088,1.6447058823529412 95,64,45
1.2630788242536308,-1.4403530452015088,1.6447058823529412 97,64,49
1.240919546635146,-1.4403530452015088,1.6447058823529412 94,64,43
1.2187602690166612,-1.4403530452015088,1.6447058823529412 97,70,44
1.1966009913981763,-1.4403530452015088,1.6447058823529412 100,69,48
1.1744417137796916,-1.4403530452015088,1.6447058823529412 98,67,49
1.152282436161207,-1.4403530452015088,1.6447058823529412 96,68,47
1.1301231585427223,-1.4403530452015088,1.6447058823529412 97,69,47
1.1079638809242374,-1.4403530452015088,1.6447058823529412 97,70,50
1.0858046033057527,-1.4403530452015088,1.6447058823529412 98,67,55
1.063645325687268,-1.4403530452015088,1.6447058823529412 96,67,47
1.041486048068783,-1.4403530452015088,1.6447058823529412 92,59,40
1.0193267704502984,-1.4403530452015088,1.6447058823529412 95,58,45
0.9971674928318137,-1.4403530452015088,1.6447058823529412 88,57,39
0.975008215213329,-1.4403530452015088,1.6447058823529412 92,68,54
1.4374523672299904,-2.172893113254636,2.481176470588235 130,114,106
1.4100148067453,-2.1821657723439167,2.491764705882353 144,134,135
1.3764430256323166,-2.1821657723439167,2.491764705882353 126,122,128
1.337164992772084,-2.172893113254636,2.481176470588235 102,100,105
1.3037358679527817,-2.172893113254636,2.481176470588235 112,107,110
1.264885803973593,-2.1636204541653563,2.4705882352941178 133,130,132
1.2315993354479722,-2.1636204541653563,2.4705882352941178 144,142,146
1.1983128669223513,-2.1636204541653563,2.4705882352941178 142,140,145
1.1600334281178872,-2.1543477950760765,2.46 143,143,149
1.1268896158859476,-2.1543477950760765,2.46 145,146,153
1.093745803654008,-2.1543477950760765,2.46 136,136,146
1.0606019914220683,-2.1543477950760765,2.46 129,128,136
1.0274581791901287,-2.1543477950760765,2.46 126,129,136
0.994314366958189,-2.1543477950760765,2.46 124,129,135
0.9611705547262495,-2.1543477950760765,2.46 127,130,137
0.9280267424943097,-2.1543477950760765,2.46 129,129,139
0.8948829302623702,-2.1543477950760765,2.46 130,128,140
0.8617391180304306,-2.1543477950760765,2.46 125,125,132
0.8285953057984908,-2.1543477950760765,2.46 123,127,130
0.7954514935665512,-2.1543477950760765,2.46 125,125,135
0.7623076813346116,-2.1543477950760765,2.46 126,123,134
0.729163869102672,-2.1543477950760765,2.46 124,121,128
0.6990158390380382,-2.1636204541653563,2.4705882352941178 109,105,114
0.6657293705124174,-2.1636204541653563,2.4705882352941178 98,96,105
0.6351533715667399,-2.172893113254636,2.481176470588235 109,105,116
0.6042920600337,-2.1821657723439167,2.491764705882353 119,113,123
0.5658699649355547,-2.1636204541653563,2.4705882352941178 102,96,101
0.4937809845286388,-2.005985249647595,2.290588235294118 60,55,49
0.46077982859038025,-1.9967125905583145,2.28 22,16,15
0.432058361462559,-2.005985249647595,2.290588235294118 14,6,17
0.404906113565231,-2.024530567826155,2.3117647058823527 9,7,12
0.37375948944482856,-2.024530567826155,2.3117647058823527 8,7,7
0.3441820845549198,-2.0338032269154347,2.3223529411764705 8,6,5
0.31289280414083614,-2.0338032269154347,2.3223529411764705 12,9,0
0.2828874303698836,-2.0430758860047153,2.3329411764705883 6,5,0
0.2514554936621188,-2.0430758860047153,2.3329411764705883 0,5,1
0.22002355695435397,-2.0430758860047153,2.3329411764705883 2,9,1
0.1885916202465891,-2.0430758860047153,2.3329411764705883 6,9,2
0.15715968353882423,-2.0430758860047153,2.3329411764705883 3,9,1
0.1257277468310594,-2.0430758860047153,2.3329411764705883 3,10,3
0.09472377900433822,-2.052348545093995,2.3435294117647056 2,7,3
0.06314918600289215,-2.052348545093995,2.3435294117647056 4,2,0
0.03157459300144608,-2.052348545093995,2.3435294117647056 3,3,1
-0.0,-2.052348545093995,2.3435294117647056 6,5,3
-0.03157459300144608,-2.052348545093995,2.3435294117647056 6,4,2
-0.0708526258616787,-2.3027103405045577,2.6294117647058823 14,10,12
-0.11141456536504242,-2.413982249575919,2.756470588235294 13,8,12
-0.1496940041695064,-2.432527567754479,2.777647058823529 15,10,16
-0.18783078668028919,-2.441800226843759,2.788235294117647 15,10,17
-0.225396944016347,-2.441800226843759,2.788235294117647 15,9,12
-0.2629631013524048,-2.441800226843759,2.788235294117647 18,6,16
-0.2868342544950644,-2.330528317772398,2.6611764705882353 15,5,14
-0.2918747768718013,-2.107984499629676,2.407058823529412 5,0,6
-0.3243053076353347,-2.107984499629676,2.407058823529412 4,3,4
-0.35673583839886824,-2.107984499629676,2.407058823529412 2,3,0
-0.3891663691624017,-2.107984499629676,2.407058823529412 6,7,2
-0.4215968999259352,-2.107984499629676,2.407058823529412 6,5,1
-0.4540274306894687,-2.107984499629676,2.407058823529412 10,5,2
-0.48645796145300213,-2.107984499629676,2.407058823529412 2,2,0
-0.5188884922165357,-2.107984499629676,2.407058823529412 5,5,3
-0.5513190229800691,-2.107984499629676,2.407058823529412 1,1,1
-0.5837495537436026,-2.107984499629676,2.407058823529412 2,2,4
-0.6188905540870794,-2.1172571587189557,2.4176470588235293 4,9,5
-0.6514637411442941,-2.1172571587189557,2.4176470588235293 5,10,5
-0.6870327103688147,-2.126529817808236,2.428235294117647 1,2,0
-0.7197485537197107,-2.126529817808236,2.428235294117647 8,5,3
-0.7491833023159382,-2.1172571587189557,2.4176470588235293 15,7,6
-0.7783327383248034,-2.107984499629676,2.407058823529412 23,13,16
-0.8036304544042752,-2.0894391814511155,2.3858823529411763 16,13,9
-0.8283575453090222,-2.0708938632725555,2.364705882352941 19,12,12
-0.852514011039044,-2.052348545093995,2.3435294117647056 20,10,15
-0.8241729606943727,-1.9132586587547937,2.184705882352941 13,11,13
-0.7253597012711724,-1.6258062269871107,1.856470588235294 14,10,4
-0.7503721047632819,-1.6258062269871107,1.856470588235294 5,5,1
-0.7753845082553912,-1.6258062269871107,1.856470588235294 5,2,3
-0.8003969117475006,-1.6258062269871107,1.856470588235294 10,11,5
-0.82540931523961,-1.6258062269871107,1.856470588235294 15,10,7
-0.8455714047465576,-1.6165335678978305,1.8458823529411765 3,3,4
-0.8704411519449857,-1.6165335678978305,1.8458823529411765 7,3,1
-0.8953108991434139,-1.6165335678978305,1.8458823529411765 3,7,1
-0.920180646341842,-1.6165335678978305,1.8458823529411765 1,9,1
-0.9450503935402701,-1.6165335678978305,1.8458823529411765 5,10,5
-0.9699201407386983,-1.6165335678978305,1.8458823529411765 8,8,6
-0.9890836361898774,-1.6072609088085505,1.835294117647059 17,13,10
-1.0138107270946242,-1.6072609088085505,1.835294117647059 19,13,14
-1.0385378179993712,-1.6072609088085505,1.835294117647059 13,6,12
-1.063264908904118,-1.6072609088085505,1.835294117647059 5,9,0
-1.0879919998088652,-1.6072609088085505,1.835294117647059 9,13,10
-1.112719090713612,-1.6072609088085505,1.835294117647059 14,7,8
-1.1440083711276954,-1.6165335678978305,1.8458823529411765 14,5,16
-1.1755829641291415,-1.6258062269871107,1.856470588235294 11,5,6
-1.2005953676212509,-1.6258062269871107,1.856470588235294 19,13,17
-1.2256077711133604,-1.6258062269871107,1.856470588235294 11,4,7
-1.2434873599214082,-1.6165335678978305,1.8458823529411765 24,13,11
-1.2610816361420936,-1.6072609088085505,1.835294117647059 25,12,18
-1.2635543452325684,-1.5794429315407101,1.803529411764706 26,12,14
-1.2576103329958501,-1.54235229518359,1.7611764705882353 17,13,10
-1.273635389986042,-1.5330796360943098,1.7505882352941178 3,1,0
-1.2893751343888715,-1.5238069770050298,1.7400000000000002 16,10,7
-1.240919546635146,-1.4403530452015088,1.6447058823529412 78,55,34
-1.2630788242536308,-1.4403530452015088,1.6447058823529412 95,66,49
-1.2852381018721155,-1.4403530452015088,1.6447058823529412 96,71,61
-1.3073973794906004,-1.4403530452015088,1.6447058823529412 99,72,63
-1.329556657109085,-1.4403530452015088,1.6447058823529412 100,75,59
-1.3517159347275698,-1.4403530452015088,1.6447058823529412 101,76,61
-1.3738752123460545,-1.4403530452015088,1.6447058823529412 101,78,70
-1.3960344899645394,-1.4403530452015088,1.6447058823529412 104,79,71
-1.418193767583024,-1.4403530452015088,1.6447058823529412 102,75,69
-1.4403530452015088,-1.4403530452015088,1.6447058823529412 101,75,68
-1.4625123228199937,-1.4403530452015088,1.6447058823529412 105,78,67
-1.4846716004384783,-1.4403530452015088,1.6447058823529412 102,76,65
-1.506830878056963,-1.4403530452015088,1.6447058823529412 98,77,60
-1.5289901556754477,-1.4403530452015088,1.6447058823529412 103,77,62
-1.5511494332939326,-1.4403530452015088,1.6447058823529412 105,78,68
-1.5733087109124173,-1.4403530452015088,1.6447058823529412 99,73,69
-1.595467988530902,-1.4403530452015088,1.6447058823529412 101,78,65
-1.6176272661493867,-1.4403530452015088,1.6447058823529412 102,74,70
-1.6397865437678716,-1.4403530452015088,1.6447058823529412 101,74,67
-1.6619458213863563,-1.4403530452015088,1.6447058823529412 101,78,72
-1.684105099004841,-1.4403530452015088,1.6447058823529412 95,78,71
-1.695279842009871,-1.4310803861122288,1.6341176470588237 98,75,72
-1.7172964633346743,-1.4310803861122288,1.6341176470588237 102,72,72
-1.7393130846594778,-1.4310803861122288,1.6341176470588237 98,74,68
-1.7613297059842816,-1.4310803861122288,1.6341176470588237 92,74,60
-1.783346327309085,-1.4310803861122288,1.6341176470588237 93,74,59
-1.8053629486338885,-1.4310803861122288,1.6341176470588237 99,74,67
-1.827379569958692,-1.4310803861122288,1.6341176470588237 97,74,66
-1.8493961912834955,-1.4310803861122288,1.6341176470588237 99,71,67
-1.871412812608299,-1.4310803861122288,1.6341176470588237 95,72,65
-1.8934294339331028,-1.4310803861122288,1.6341176470588237 92,72,65
-1.9154460552579062,-1.4310803861122288,1.6341176470588237 90,67,60
-1.9374626765827097,-1.4310803861122288,1.6341176470588237 93,67,56
-1.959479297907513,-1.4310803861122288,1.6341176470588237 91,66,55
-1.9814959192323167,-1.4310803861122288,1.6341176470588237 88,66,55
-2.00351254055712,-1.4310803861122288,1.6341176470588237 89,66,52
-2.0255291618819236,-1.4310803861122288,1.6341176470588237 87,63,51
-2.0475457832067274,-1.4310803861122288,1.6341176470588237 83,61,49
-2.069562404531531,-1.4310803861122288,1.6341176470588237 86,63,47
-2.0915790258563343,-1.4310803861122288,1.6341176470588237 84,66,46
-2.1135956471811377,-1.4310803861122288,1.6341176470588237 85,61,40
-2.1356122685059415,-1.4310803861122288,1.6341176470588237 87,61,40
-2.157628889830745,-1.4310803861122288,1.6341176470588237 85,63,40
-2.1796455111555484,-1.4310803861122288,1.6341176470588237 89,64,43
-2.201662132480352,-1.4310803861122288,1.6341176470588237 83,58,43
-2.2236787538051552,-1.4310803861122288,1.6341176470588237 82,57,40
-2.2456953751299586,-1.4310803861122288,1.6341176470588237 82,54,40
-2.2677119964547625,-1.4310803861122288,1.6341176470588237 80,53,37
-2.289728617779566,-1.4310803861122288,1.6341176470588237 77,52,33
-2.3117452391043694,-1.4310803861122288,1.6341176470588237 78,52,35
2.3942481289500153,-1.4907582689688776,1.6764705882352942 47,32,29
2.371660882450487,-1.4907582689688776,1.6764705882352942 47,31,30
2.3490736359509583,-1.4907582689688776,1.6764705882352942 47,31,23
2.3264863894514303,-1.4907582689688776,1.6764705882352942 39,25,19
2.3038991429519013,-1.4907582689688776,1.6764705882352942 28,14,12
2.281311896452373,-1.4907582689688776,1.6764705882352942 41,25,19
2.258724649952845,-1.4907582689688776,1.6764705882352942 50,31,27
2.236137403453316,-1.4907582689688776,1.6764705882352942 50,29,30
2.213550156953788,-1.4907582689688776,1.6764705882352942 53,29,29
2.1909629104542594,-1.4907582689688776,1.6764705882352942 54,31,26
2.168375663954731,-1.4907582689688776,1.6764705882352942 51,27,15
2.1457884174552024,-1.4907582689688776,1.6764705882352942 51,28,16
2.123201170955674,-1.4907582689688776,1.6764705882352942 48,25,14
2.1006139244561455,-1.4907582689688776,1.6764705882352942 46,28,14
2.078026677956617,-1.4907582689688776,1.6764705882352942 43,27,14
2.0684211541820807,-1.5001735843518387,1.6870588235294117 27,14,11
2.0585303178201824,-1.5095888997348004,1.6976470588235297 14,9,5
2.0356577587332914,-1.5095888997348004,1.6976470588235297 13,9,3
2.012785199646401,-1.5095888997348004,1.6976470588235297 20,8,10
1.9650904454589746,-1.4907582689688776,1.6764705882352942 45,20,22
1.9425031989594466,-1.4907582689688776,1.6764705882352942 53,30,27
1.9199159524599179,-1.4907582689688776,1.6764705882352942 54,34,20
1.8973287059603894,-1.4907582689688776,1.6764705882352942 60,36,20
1.8747414594608611,-1.4907582689688776,1.6764705882352942 57,30,23
1.8521542129613326,-1.4907582689688776,1.6764705882352942 62,34,25
1.8295669664618044,-1.4907582689688776,1.6764705882352942 65,32,27
1.8069797199622757,-1.4907582689688776,1.6764705882352942 58,36,25
1.7843924734627472,-1.4907582689688776,1.6764705882352942 57,33,21
1.761805226963219,-1.4907582689688776,1.6764705882352942 53,37,17
1.7392179804636905,-1.4907582689688776,1.6764705882352942 62,37,18
1.716630733964162,-1.4907582689688776,1.6764705882352942 65,36,19
1.6940434874646335,-1.4907582689688776,1.6764705882352942 65,39,24
1.671456240965105,-1.4907582689688776,1.6764705882352942 61,37,27
1.6488689944655766,-1.4907582689688776,1.6764705882352942 62,36,24
1.6160104948209995,-1.4813429535859162,1.6658823529411766 61,33,19
1.5935659046151522,-1.4813429535859162,1.6658823529411766 69,40,24
1.571121314409305,-1.4813429535859162,1.6658823529411766 69,40,22
1.5486767242034578,-1.4813429535859162,1.6658823529411766 68,39,25
1.5262321339976106,-1.4813429535859162,1.6658823529411766 68,41,22
1.5037875437917634,-1.4813429535859162,1.6658823529411766 72,43,21
1.4813429535859162,-1.4813429535859162,1.6658823529411766 82,49,26
1.4588983633800692,-1.4813429535859162,1.6658823529411766 89,58,38
1.4364537731742217,-1.4813429535859162,1.6658823529411766 89,63,40
1.4140091829683745,-1.4813429535859162,1.6658823529411766 90,63,41
1.3915645927625273,-1.4813429535859162,1.6658823529411766 93,64,46
1.36912000255668,-1.4813429535859162,1.6658823529411766 93,63,43
1.346675412350833,-1.4813429535859162,1.6658823529411766 93,66,40
1.3242308221449857,-1.4813429535859162,1.6658823529411766 94,66,42
1.3017862319391384,-1.4813429535859162,1.6658823529411766 93,65,53
1.2793416417332912,-1.4813429535859162,1.6658823529411766 95,64,45
1.256897051527444,-1.4813429535859162,1.6658823529411766 94,68,41
1.2344524613215968,-1.4813429535859162,1.6658823529411766 94,70,41
1.2120078711157496,-1.4813429535859162,1.6658823529411766 96,70,48
1.1895632809099024,-1.4813429535859162,1.6658823529411766 95,69,53
1.1671186907040552,-1.4813429535859162,1.6658823529411766 97,71,51
1.144674100498208,-1.4813429535859162,1.6658823529411766 95,67,43
1.1222295102923607,-1.4813429535859162,1.6658823529411766 93,65,43
1.0997849200865135,-1.4813429535859162,1.6658823529411766 90,56,35
1.0773403298806663,-1.4813429535859162,1.6658823529411766 92,58,31
1.054895739674819,-1.4813429535859162,1.6658823529411766 88,54,32
1.150570560637032,-1.65081863047922,1.856470588235294 96,71,60
1.5171496832999054,-2.2251528688398614,2.5023529411764707 121,111,109
1.4959889997371891,-2.243983499605784,2.523529411764706 138,136,136
1.4619892497431621,-2.243983499605784,2.523529411764706 126,125,128
1.4219979354145234,-2.2345681842228227,2.512941176470588 104,103,109
1.3881408417141774,-2.2345681842228227,2.512941176470588 102,101,105
1.3485774962665826,-2.2251528688398614,2.5023529411764707 128,126,129
1.314863058859918,-2.2251528688398614,2.5023529411764707 143,141,145
1.2811486214532535,-2.2251528688398614,2.5023529411764707 143,141,148
1.242155901180383,-2.2157375534568997,2.491764705882353 142,142,148
1.2085841200674,-2.2157375534568997,2.491764705882353 145,144,148
1.1750123389544165,-2.2157375534568997,2.491764705882353 143,143,149
1.1414405578414333,-2.2157375534568997,2.491764705882353 143,143,151
1.1031611190369692,-2.2063222380739385,2.481176470588235 143,143,153
1.069731994217667,-2.2063222380739385,2.481176470588235 142,139,146
1.036302869398365,-2.2063222380739385,2.481176470588235 132,131,137
1.0028737445790628,-2.2063222380739385,2.481176470588235 125,129,133
0.9694446197597609,-2.2063222380739385,2.481176470588235 125,129,133
0.9360154949404588,-2.2063222380739385,2.481176470588235 127,128,133
0.9025863701211566,-2.2063222380739385,2.481176470588235 129,129,137
0.8691572453018545,-2.2063222380739385,2.481176470588235 125,129,133
0.8357281204825524,-2.2063222380739385,2.481176470588235 125,129,132
0.8022989956632504,-2.2063222380739385,2.481176470588235 124,124,132
0.7688698708439482,-2.2063222380739385,2.481176470588235 124,124,132
0.7354407460246462,-2.2063222380739385,2.481176470588235 124,122,135
0.70500740337265,-2.2157375534568997,2.491764705882353 124,123,132
0.6714356222596667,-2.2157375534568997,2.491764705882353 118,116,120
0.6378638411466833,-2.2157375534568997,2.491764705882353 104,101,107
0.6068598733199623,-2.2251528688398614,2.5023529411764707 101,98,106
0.5755705929058785,-2.2345681842228227,2.512941176470588 111,105,120
0.5417134992055327,-2.2345681842228227,2.512941176470588 113,113,120
0.4843181170477836,-2.130999715010248,2.396470588235294 53,55,50
0.4360527376856333,-2.055677191946557,2.3117647058823527 43,42,37
0.404906113565231,-2.055677191946557,2.3117647058823527 13,12,13
0.3771832404931782,-2.07450782271248,2.3329411764705883 13,7,14
0.3473205230159069,-2.0839231380954413,2.3435294117647056 12,6,6
0.3157459300144608,-2.0839231380954413,2.3435294117647056 14,8,2
0.28545524365614583,-2.0933384534784025,2.3541176470588234 15,9,6
0.2537379943610185,-2.0933384534784025,2.3541176470588234 6,6,8
0.22301933912165983,-2.102753768861364,2.364705882352941 5,10,6
0.19115943353285125,-2.102753768861364,2.364705882352941 6,6,2
0.15929952794404273,-2.102753768861364,2.364705882352941 2,5,0
0.12801024752995913,-2.1121690842443255,2.375294117647059 4,9,2
0.09600768564746935,-2.1121690842443255,2.375294117647059 2,7,1
0.06400512376497956,-2.1121690842443255,2.375294117647059 5,6,1
0.03200256188248978,-2.1121690842443255,2.375294117647059 3,5,0
-0.0,-2.1121690842443255,2.375294117647059 6,6,1
-0.03200256188248978,-2.1121690842443255,2.375294117647059 10,9,5
-0.06999668809959131,-2.309890707286513,2.5976470588235294 7,7,7
-0.11141456536504242,-2.451120438030933,2.756470588235294 17,9,11
-0.1496940041695064,-2.4699510687968558,2.777647058823529 17,8,12
-0.18783078668028919,-2.479366384179817,2.788235294117647 13,7,10
-0.225396944016347,-2.479366384179817,2.788235294117647 13,12,7
-0.26196450729663623,-2.4699510687968558,2.777647058823529 15,12,7
-0.2879755048445143,-2.375797914967243,2.671764705882353 12,11,9
-0.29444259015806346,-2.1592456611591317,2.428235294117647 3,4,2
-0.32715843350895935,-2.1592456611591317,2.428235294117647 1,6,2
-0.35987427685985535,-2.1592456611591317,2.428235294117647 1,3,0
-0.3925901202107513,-2.1592456611591317,2.428235294117647 7,9,6
-0.4253059635616472,-2.1592456611591317,2.428235294117647 1,3,0
-0.45802180691254313,-2.1592456611591317,2.428235294117647 2,3,1
-0.4928774946686575,-2.168660976542093,2.4388235294117644 3,3,1
-0.5257359943132347,-2.168660976542093,2.4388235294117644 2,2,0
-0.5585944939578118,-2.168660976542093,2.4388235294117644 4,4,4
-0.591452993602389,-2.168660976542093,2.4388235294117644 1,1,1
-0.6270219628269096,-2.1780762919250547,2.449411764705882 2,6,2
-0.6600231187651681,-2.1780762919250547,2.449411764705882 2,9,1
-0.6930242747034264,-2.1780762919250547,2.449411764705882 10,11,4
-0.7228869921806977,-2.168660976542093,2.4388235294117644 23,12,11
-0.7491833023159382,-2.1498303457761705,2.4176470588235293 19,9,16
-0.7783327383248034,-2.1404150303932092,2.407058823529412 22,11,17
-0.8036304544042752,-2.1215843996272867,2.3858823529411763 12,12,8
-0.8246484816733101,-2.0933384534784025,2.3541176470588234 13,11,17
-0.7061486537220999,-1.7261411535429108,1.9411764705882353 19,11,16
-0.7083360502252121,-1.6696492612451428,1.8776470588235297 9,7,8
-0.733633766304684,-1.6696492612451428,1.8776470588235297 8,4,5
-0.7589314823841559,-1.6696492612451428,1.8776470588235297 0,1,0
-0.7842291984636278,-1.6696492612451428,1.8776470588235297 0,5,0
-0.8095269145430997,-1.6696492612451428,1.8776470588235297 2,8,2
-0.8348246306225714,-1.6696492612451428,1.8776470588235297 7,2,3
-0.8552720327168815,-1.6602339458621818,1.867058823529412 12,6,15
-0.8804270925026721,-1.6602339458621818,1.867058823529412 13,10,5
-0.9055821522884628,-1.6602339458621818,1.867058823529412 7,7,0
-0.9307372120742533,-1.6602339458621818,1.867058823529412 3,7,0
-0.9558922718600441,-1.6602339458621818,1.867058823529412 0,9,1
-0.9810473316458346,-1.6602339458621818,1.867058823529412 2,8,1
-1.0062023914316254,-1.6602339458621818,1.867058823529412 9,9,5
-1.031357451217416,-1.6602339458621818,1.867058823529412 15,6,5
-1.0565125110032065,-1.6602339458621818,1.867058823529412 20,7,14
-1.0816675707889971,-1.6602339458621818,1.867058823529412 17,14,6
-1.106822630574788,-1.6602339458621818,1.867058823529412 11,9,14
-1.1319776903605785,-1.6602339458621818,1.867058823529412 16,7,13
-1.1636949396557057,-1.6696492612451428,1.8776470588235297 13,7,14
-1.1889926557351775,-1.6696492612451428,1.8776470588235297 11,7,11
-1.2142903718146494,-1.6696492612451428,1.8776470588235297 19,9,17
-1.2325979295037408,-1.6602339458621818,1.867058823529412 25,11,20
-1.2506201746054697,-1.65081863047922,1.856470588235294 25,15,14
-1.2247042812533795,-1.584911422798491,1.782352941176471 33,16,15
-1.1745368179754792,-1.4907582689688776,1.6764705882352942 40,25,25
-1.2424887658656396,-1.5472501612666456,1.7400000000000002 6,4,1
-1.2659319501272555,-1.5472501612666456,1.7400000000000002 7,6,5
-1.2893751343888715,-1.5472501612666456,1.7400000000000002 24,14,14
-1.256897051527444,-1.4813429535859162,1.6658823529411766 80,57,40
-1.2793416417332912,-1.4813429535859162,1.6658823529411766 96,69,50
-1.3017862319391384,-1.4813429535859162,1.6658823529411766 97,75,57
-1.3242308221449857,-1.4813429535859162,1.6658823529411766 99,75,60
-1.346675412350833,-1.4813429535859162,1.6658823529411766 102,78,60
-1.36912000255668,-1.4813429535859162,1.6658823529411766 103,80,63
-1.3915645927625273,-1.4813429535859162,1.6658823529411766 100,76,64
